ply
format ascii 1.0
element vertex 1149
property double x
property double y
property double z
property uchar red
property uchar green
property uchar blue
end_header
-3.165404 0.782442 -15.456327 184 175 176
-1.184823 1.594859 -8.999911 134 116 114
-3.655272 -0.389677 -8.353194 109 94 87
-3.787303 0.290555 -13.583973 181 171 172
-3.295308 0.825385 -14.623550 160 146 145
-3.294767 0.824245 -14.623998 160 146 145
-1.269179 1.197481 -9.840662 120 100 91
-3.403655 1.005808 -13.944254 187 185 188
-4.668370 -0.325151 -8.853722 188 188 178
-2.921163 1.286814 -13.254510 158 141 133
-3.408355 0.456417 -15.473723 184 180 179
-2.185559 1.203784 -12.665392 110 93 86
-2.893956 1.129290 -15.129185 190 182 179
-3.140442 0.808777 -15.516742 178 172 174
-3.256661 -0.619923 -8.896268 84 66 52
-4.565339 -0.265377 -8.804788 140 118 105
-3.300831 1.113358 -15.814476 214 209 206
-3.126301 0.985648 -15.239146 192 188 189
-3.308001 0.648902 -15.353053 162 152 151
-4.490519 0.138982 -7.229710 77 24 18
-3.014246 1.344100 -16.014191 169 149 140
-2.801509 1.175585 -15.255863 184 173 177
-2.846949 1.128132 -15.104244 193 183 181
-3.609286 -0.052456 -15.037045 170 154 141
-3.557714 0.683453 -13.253293 162 154 152
-3.521587 0.166322 -15.458690 161 150 148
-2.998597 0.916974 -15.433444 181 177 178
-2.892475 1.012309 -15.055885 150 140 138
-2.411281 1.298365 -15.188786 197 193 194
-3.248143 0.163134 -7.921405 161 142 127
-3.015025 0.043512 -8.211247 134 115 109
-3.691611 0.064971 -15.692496 188 174 165
-2.028202 1.373427 -13.096590 178 168 166
-3.587908 0.123249 -15.600009 177 163 152
-3.598698 0.736654 -15.776461 197 185 173
-3.486326 0.536929 -15.120414 185 167 163
-0.985219 1.515738 -9.149039 135 124 118
-2.837710 -0.219963 -8.893637 113 95 83
-3.473515 0.667242 -12.988628 108 93 88
-3.702003 0.437766 -13.372787 168 164 163
-1.289744 1.200174 -8.018435 194 178 163
-3.215695 0.731567 -15.429670 186 181 185
-1.801081 1.234436 -9.031717 157 150 144
-1.800500 1.233289 -9.031808 157 150 144
-3.755386 -0.488115 -15.685359 172 147 127
-3.663532 0.507246 -13.311540 148 137 133
-3.478045 0.915283 -13.979056 157 123 121
-3.628961 0.067221 -15.634750 180 162 150
-3.138190 0.153018 -8.034071 139 121 109
-3.423307 0.630237 -15.103909 196 191 187
-2.356011 1.183810 -12.611693 101 87 74
-1.833889 1.365896 -15.741533 170 160 151
-3.898107 -0.554603 -9.796469 149 140 135
-3.562207 0.819984 -13.938833 190 181 184
-3.561036 0.817826 -13.940101 188 182 184
-3.561112 0.817853 -13.939981 188 182 184
-2.254093 1.288907 -15.099089 194 189 186
-2.714493 1.326539 -14.403818 183 182 188
-3.749066 0.204343 -7.903705 143 138 135
-3.378379 0.523062 -15.470722 195 189 189
-4.215475 0.178341 -11.089851 158 149 144
-3.439952 0.973061 -15.806412 198 188 178
-1.957584 0.812485 -8.594362 162 149 141
-3.884557 0.154628 -15.775268 212 205 199
-3.010726 0.910024 -15.481556 165 147 145
-2.478537 1.154278 -15.408405 155 140 137
-3.430620 -0.429630 -8.355494 110 95 88
-4.160654 -0.623743 -9.066136 106 84 70
-1.136991 1.230071 -9.747546 113 95 91
-2.107902 1.214073 -15.577768 182 172 170
-2.704326 1.213433 -15.247475 190 184 188
-2.075077 1.372952 -9.944697 190 183 175
-3.200354 0.739066 -15.520846 166 155 149
-3.241882 0.089456 -7.823422 212 204 185
-2.381616 1.394198 -14.462289 189 184 190
-2.088224 1.442417 -14.261786 183 177 181
-2.350348 1.267055 -14.707442 183 178 184
-1.048122 1.490708 -9.157855 141 126 119
-3.319500 0.644412 -14.799806 162 145 137
-1.676871 1.174553 -9.434436 112 101 97
-2.659232 1.241305 -15.217896 194 188 190
-3.268812 1.370542 -11.668910 164 155 150
-3.188611 0.851801 -15.078752 175 161 148
-3.648018 0.804969 -15.939155 198 193 197
-3.714343 0.514163 -14.029803 184 178 182
-3.805856 0.538916 -15.881173 182 171 165
-3.748211 0.547957 -15.792673 214 204 203
-3.749351 0.548096 -15.791903 214 204 203
-3.365266 0.973556 -14.236907 188 179 184
-3.379160 0.559587 -15.363354 178 169 172
-1.928735 1.208132 -15.631568 176 167 162
-3.053859 1.189114 -14.327137 169 164 168
-0.625392 1.355485 -9.418609 156 140 141
-3.042698 1.011924 -11.017141 120 101 86
-1.957682 1.560545 -15.962705 160 143 136
-3.308118 0.885142 -14.514611 188 185 192
-1.205535 1.480848 -8.180939 187 174 165
-3.339027 0.563064 -15.391697 177 171 173
-2.944706 1.328056 -11.061478 153 140 134
-3.640181 0.691243 -13.632346 184 180 181
-3.639117 0.689585 -13.632544 184 180 181
-1.871145 1.226471 -12.708042 105 91 90
-2.656882 1.104242 -14.867114 173 163 171
-3.839178 0.186626 -7.888036 146 127 120
-3.329514 1.006268 -13.307012 185 179 179
-3.329514 1.006268 -13.307012 185 179 179
-3.412611 0.696200 -15.173063 196 187 188
-3.684279 -0.576983 -9.509473 100 84 69
-2.423892 1.353860 -14.496205 190 188 191
-2.266585 1.394340 -14.467270 186 181 188
-2.276009 0.716665 -8.751396 204 195 188
-2.298915 1.194865 -14.829477 176 165 173
-4.213346 -0.056723 -8.301492 141 126 119
-2.354215 1.200694 -15.582048 184 175 170
-2.600301 1.337698 -13.067000 173 168 164
-2.215392 1.434453 -14.301637 183 174 179
-3.288071 1.049882 -13.320251 163 150 142
-4.692832 0.210724 -7.886862 152 138 127
-4.085101 -0.364245 -8.599572 126 108 98
-3.529252 0.604997 -13.088795 147 135 135
-2.689020 1.310491 -14.492176 184 177 185
-4.221169 0.070407 -10.978296 162 148 137
-1.918883 0.873196 -8.463208 187 173 162
-2.728663 1.435856 -13.952225 183 182 187
-3.056623 1.212834 -13.249265 159 146 137
-4.041008 0.010294 -8.115203 143 124 120
-2.765491 1.706263 -10.361975 199 192 184
-2.522678 1.362905 -12.070799 152 148 149
-2.753154 1.430051 -13.889024 187 183 184
-3.347167 -0.342660 -8.189052 89 66 50
-1.821028 1.414233 -14.215305 181 175 177
-3.436914 0.643834 -15.708610 178 164 155
-3.361940 0.922857 -10.046947 163 157 157
-3.083959 1.252089 -13.999452 181 177 176
-3.629612 0.640292 -14.148083 192 187 193
-3.212693 -0.568819 -9.108443 80 68 56
-3.507272 0.907097 -15.809098 210 203 195
-3.695844 -0.186879 -15.663244 184 166 152
-3.640806 0.574572 -13.342565 166 156 157
-2.900967 1.283030 -13.214941 172 167 164
-2.901930 1.283535 -13.214635 172 167 164
-1.784094 1.448653 -13.581327 166 148 144
-4.168720 0.251994 -10.884167 148 136 122
-2.749093 1.765638 -10.665435 136 119 112
-1.208799 1.526274 -9.012773 110 90 91
-2.701846 1.343454 -13.172343 141 117 105
-2.700970 1.342150 -13.172340 146 128 118
-3.469573 0.974559 -15.831874 193 182 176
-3.560722 0.774289 -13.461888 175 167 165
-3.555586 0.579908 -13.067006 137 122 117
-3.113403 0.984646 -15.130015 207 203 202
-2.165877 1.009142 -9.608962 123 106 96
-3.390792 0.823196 -10.092732 154 146 144
-2.200258 1.561988 -15.862950 186 179 173
-3.012186 1.024721 -15.093386 195 190 186
-3.175872 0.160081 -8.018514 150 133 125
-3.608203 -0.574487 -15.620278 180 163 155
-2.821088 1.777891 -10.892338 140 125 122
-3.370989 1.060808 -13.859435 191 187 186
-3.654038 0.782431 -15.889838 202 196 196
-3.550655 -0.379910 -8.243037 80 60 49
-2.873474 1.782051 -10.881125 133 118 115
-3.073513 0.860652 -15.453825 169 160 161
-3.100841 -0.553844 -8.797361 87 73 64
-3.483640 0.776471 -9.844061 174 169 165
-0.792804 1.525015 -8.578677 185 169 156
-3.021348 -0.184553 -8.282250 86 62 50
-3.847508 0.423619 -15.868901 171 163 161
-1.378767 1.194754 -9.691490 113 98 93
-2.265649 1.493263 -13.449062 188 183 180
-2.259487 1.484506 -13.454600 184 180 179
-3.617354 0.657963 -13.395671 186 178 176
-2.127526 1.011394 -9.604950 112 95 85
-2.381647 1.083902 -12.425561 94 79 72
-4.061051 -0.306532 -8.440950 106 83 69
-1.835906 1.539065 -15.930720 163 146 139
-3.392890 -0.529597 -8.412107 84 65 58
-2.170741 1.292429 -15.266261 179 168 174
-2.227902 1.174487 -15.052431 140 122 112
-3.187204 -0.475484 -8.379725 85 59 42
-4.109482 -0.619066 -9.237596 120 107 98
-2.535320 1.298075 -14.596416 186 177 178
-3.476910 1.208594 -11.530860 184 179 175
-2.766602 1.269248 -14.492850 151 132 134
-3.120282 -0.533852 -8.699689 76 58 48
-1.770016 1.243705 -9.278673 137 124 116
-2.248124 1.438066 -13.256489 151 142 135
-2.285079 0.691885 -8.719702 192 182 173
-2.050153 1.502832 -13.671508 176 168 165
-1.274853 0.948505 -10.268412 161 151 150
-1.780895 1.187220 -9.849759 162 148 139
-2.501625 0.763671 -9.500229 141 130 124
-3.226042 1.218196 -15.995212 184 170 167
-4.677471 0.200305 -7.493186 159 139 132
-1.127751 1.382711 -9.341657 128 115 106
-2.970959 1.096125 -15.729753 173 159 146
-3.500899 0.218436 -7.870039 147 134 125
-3.008426 1.267581 -13.338139 178 173 169
-1.719319 1.260277 -15.712001 159 141 127
-3.062988 -0.502183 -9.014159 108 94 81
-2.609039 1.517070 -15.892889 194 183 179
-1.645579 1.378963 -8.955818 133 118 113
-1.719057 1.161248 -8.390830 202 192 183
-1.297045 1.155741 -9.821286 121 104 94
-4.500814 0.110181 -8.216097 152 130 119
-2.350071 0.694261 -8.819690 164 154 144
-4.172205 0.284845 -10.905303 179 175 172
-2.639608 1.202342 -10.071778 225 218 208
-3.657586 0.671253 -13.710173 178 169 172
-3.755808 0.254697 -13.374685 136 116 107
-3.755411 0.254594 -13.374750 140 114 99
-3.608409 -0.587099 -9.375747 90 65 60
-3.450795 0.870120 -13.302045 179 171 168
-3.208736 1.189721 -13.871056 150 131 127
-2.213706 1.046465 -9.393120 152 145 135
-3.433090 -0.546859 -9.269115 153 137 124
-1.652957 1.093103 -8.268050 219 218 214
-1.653376 1.093644 -8.268140 219 218 214
-2.895493 1.778604 -10.850096 132 113 106
-3.315621 1.090804 -13.632633 188 182 184
-2.962017 1.251234 -11.009301 116 98 94
-2.108072 1.367856 -13.034267 171 163 161
-2.767750 1.405840 -13.528221 176 170 170
-1.270395 1.553954 -12.901760 160 142 138
-1.458917 1.396214 -15.822550 195 190 187
-0.851592 1.484595 -13.434987 180 165 168
-2.414710 1.491949 -14.019692 149 120 114
-2.686741 1.454882 -13.818034 182 176 176
-2.640142 1.341504 -14.429779 163 137 136
-2.997966 1.324046 -13.884703 184 178 180
-3.632300 0.821893 -15.886557 190 176 173
-4.091274 -0.657636 -9.094124 117 94 80
-1.768634 1.239447 -9.322687 138 127 123
-3.461729 0.931467 -14.016904 162 145 138
-1.997080 1.685331 -12.046919 161 150 146
-3.449854 0.802164 -13.164165 127 110 102
-3.546595 0.265995 -15.603859 172 150 139
-1.193041 1.378534 -9.420814 151 141 131
-2.641190 1.504051 -15.987750 186 176 175
-0.912534 1.458367 -8.299117 211 204 194
-1.251063 1.371242 -9.492452 129 115 112
-3.595364 -0.737577 -15.654801 164 141 125
-1.600435 1.042615 -15.408754 128 85 53
-3.413533 0.685927 -15.718198 177 167 155
-2.548929 1.393962 -11.940086 146 134 136
-2.380152 1.485330 -13.466291 182 177 173
-3.095884 0.928763 -15.654551 179 169 159
-1.987052 1.022459 -8.804364 195 182 174
-3.474496 0.557435 -9.529760 197 190 182
-2.874166 1.217597 -14.495355 155 137 135
-3.594065 -0.067513 -15.566391 171 155 140
-3.594704 -0.060215 -15.561961 156 132 120
-3.121245 1.108028 -14.427906 169 154 151
-2.915175 1.139206 -12.874764 145 132 126
-3.164410 1.189321 -14.107666 160 141 137
-4.442897 0.273816 -7.411309 142 128 119
-2.139157 1.373106 -14.496090 156 129 120
-2.977466 1.085816 -14.646399 169 144 140
-4.289842 -0.486603 -8.922843 112 93 78
-1.158581 1.524874 -12.808322 171 162 157
-1.942080 0.695242 -8.400693 178 169 162
-3.067684 1.285602 -13.759259 175 169 169
-3.067772 1.283108 -13.760617 183 179 180
-2.674306 1.209500 -14.685780 167 145 147
-3.072747 1.024323 -11.036972 144 123 106
-2.598963 1.411599 -14.269717 150 132 128
-3.243074 1.211036 -15.912832 188 173 168
-3.360027 0.919703 -9.961905 161 152 147
-3.760452 0.428723 -13.789600 149 135 126
-2.771540 1.413058 -13.993227 154 136 136
-1.482149 1.115417 -9.552307 124 104 95
-4.364906 -0.265275 -8.745271 134 115 108
-3.319329 1.151117 -15.979253 188 178 177
-3.379132 0.792415 -14.528485 157 129 118
-3.409080 0.470103 -15.394814 170 149 144
-2.096189 1.459568 -14.212564 150 130 123
-3.925748 -0.585123 -8.809270 119 106 98
-3.104132 1.186201 -14.262048 165 150 145
-3.882056 -0.470684 -15.728997 190 172 162
-3.950014 -0.016777 -15.815185 211 205 205
-3.616963 0.283888 -7.725575 192 180 164
-2.235868 1.357959 -14.529171 167 138 132
-3.672637 -0.607949 -9.383753 143 130 121
-3.524500 -0.673518 -8.951425 114 96 86
-1.468346 1.048168 -9.847016 143 129 118
-3.113856 1.614070 -10.493214 164 153 147
-1.258285 0.866386 -15.562602 148 121 104
-2.803737 1.376555 -15.795944 194 176 164
-1.067405 1.599448 -8.643645 199 194 191
-1.067363 1.600222 -8.643558 201 198 189
-2.754497 1.469158 -15.985830 174 164 162
-3.412855 -0.613430 -8.592344 90 72 60
-3.486494 0.816659 -14.263232 167 149 145
-2.053806 1.457231 -14.215631 159 140 136
-2.053806 1.457231 -14.215631 159 140 136
-3.667455 0.468815 -13.279872 154 134 125
-3.596918 -0.024723 -15.576297 193 189 186
-2.295713 1.441251 -14.297736 155 136 130
-2.140603 1.195527 -15.365927 142 122 113
-2.140603 1.195527 -15.365927 142 122 113
-3.449224 -0.560066 -9.268406 140 124 111
-1.401690 1.528842 -12.749681 154 145 140
-3.551112 0.828825 -13.661194 160 143 136
-3.807133 0.937907 -11.786601 189 181 170
-3.704729 0.508348 -14.083782 158 138 131
-1.955360 1.044904 -9.525817 116 99 91
-1.923981 1.095118 -8.774082 179 172 164
-3.555245 0.749268 -14.176346 162 137 132
-3.777417 0.669311 -10.896566 158 145 139
-3.368750 0.721866 -10.616420 141 132 127
-3.158850 1.215164 -15.809296 192 174 164
-2.595307 1.209031 -14.732896 163 147 148
-2.131375 0.483095 -8.536636 214 210 201
-2.201516 1.468543 -14.201075 161 140 139
-3.482396 0.303206 -15.496205 159 145 134
-3.449938 -0.661467 -8.979595 82 60 49
-3.449640 -0.662107 -8.979745 85 63 50
-1.963714 1.498815 -13.878613 161 141 132
-2.341313 1.419494 -14.359636 159 135 135
-1.984050 0.765898 -8.563253 192 185 177
-2.344734 1.183493 -15.391740 140 119 114
-3.210552 1.228310 -11.213076 177 165 153
-3.055917 1.622277 -10.349210 185 176 171
-2.058294 1.397234 -14.393273 150 130 123
-2.462591 1.480761 -14.058378 156 141 136
-3.386933 -0.661575 -8.837407 119 102 92
-2.548018 0.482133 -8.905542 161 150 144
-3.003280 1.086534 -14.614295 168 149 151
-3.506549 0.886402 -13.967174 157 138 132
-1.815700 1.257926 -12.765248 123 107 108
-2.698652 1.183188 -12.765857 143 133 124
-1.888333 1.677418 -12.204987 149 134 129
-2.305491 1.312450 -15.215937 171 146 139
-3.400535 -0.577394 -9.231456 127 110 103
-2.404515 1.453632 -10.109899 148 138 126
-3.046499 1.012251 -15.102774 178 163 156
-3.556022 0.698278 -9.951062 171 162 155
-2.830372 1.239101 -14.501206 168 140 139
-3.243842 1.139699 -16.101598 175 161 161
-3.295964 0.711473 -9.473374 189 180 173
-3.336706 1.001507 -14.241885 168 148 149
-3.799485 0.293489 -13.711106 161 144 134
-1.836966 1.405348 -12.631460 151 141 142
-2.561259 1.474385 -15.803486 198 176 165
-4.591134 0.204551 -7.493397 182 168 168
-2.137969 1.503823 -13.992393 147 128 124
-2.369259 1.169997 -15.500747 159 136 128
-2.539067 1.135589 -15.420842 137 108 104
-3.372591 0.864765 -13.091329 139 119 110
-3.802005 0.252003 -15.748864 192 176 163
-3.272656 0.161536 -7.971288 117 100 93
-3.272656 0.161536 -7.971288 117 100 93
-1.370802 1.432054 -9.155618 131 120 118
-3.611848 0.555404 -13.206443 139 120 114
-2.203428 1.625658 -12.107174 169 155 155
-2.675758 1.315529 -14.465771 166 150 150
-2.754578 1.173043 -14.693603 160 140 142
-3.722053 0.577359 -10.120640 188 184 183
-3.610231 0.344361 -13.004980 103 84 78
-2.936843 1.222718 -15.756468 201 201 201
-3.129579 0.999452 -14.613555 166 151 146
-3.705906 0.352417 -13.274181 135 116 112
-3.152511 -0.439162 -9.163104 134 125 116
-3.076274 0.984639 -15.093929 182 167 160
-2.588244 1.211029 -10.023587 145 126 109
-3.296805 0.765394 -11.010545 122 107 100
-2.208041 1.623632 -12.162517 157 147 148
-3.832252 0.022896 -15.722712 177 163 152
-3.562123 1.244529 -11.932528 179 171 169
-2.877435 1.408058 -11.078336 117 100 93
-3.659979 0.644036 -13.940901 163 144 138
-4.054918 0.066124 -10.293104 171 154 146
-1.919107 1.202150 -15.045852 127 102 95
-3.891250 -0.013802 -15.746151 203 199 200
-3.223138 1.090028 -14.269426 170 151 147
-1.623195 1.623808 -12.304113 156 141 136
-2.112662 1.513913 -15.790781 189 171 157
-2.112749 1.513771 -15.790592 189 171 157
-3.675932 0.273835 -7.794381 151 138 132
-3.692568 0.467544 -13.346196 152 137 130
-3.592063 0.777223 -13.751742 159 143 143
-3.010605 1.258466 -15.786475 192 173 158
-2.030567 1.355914 -13.038256 151 129 116
-3.384562 0.222595 -7.896375 156 142 133
-1.920571 1.270889 -15.100354 164 146 136
-3.373798 0.061176 -9.315502 112 86 73
-3.370543 0.053445 -9.315908 99 82 75
-3.698821 0.578610 -13.699631 160 142 140
-3.698756 0.575239 -13.702297 157 143 140
-3.204201 0.807155 -15.065121 147 129 117
-1.797179 1.344969 -13.020662 168 164 163
-2.509315 1.194614 -15.062310 145 127 115
-2.002089 1.399947 -14.377411 160 139 134
-1.958421 1.484685 -15.775732 178 156 142
-1.958421 1.484685 -15.775732 178 156 142
-3.025850 1.297500 -13.952071 157 142 139
-2.959276 1.321634 -14.050802 160 145 142
-2.782137 1.331520 -14.331313 156 135 130
-3.702544 0.550852 -13.572478 161 143 133
-3.757193 1.004527 -11.789368 184 175 166
-3.395393 0.923831 -14.277614 162 143 145
-2.165482 1.019319 -9.578355 117 99 89
-3.270610 0.595262 -15.042596 105 79 64
-3.170101 0.990698 -14.572362 159 141 139
-2.596693 1.038214 -15.035140 109 91 79
-3.038941 1.082420 -9.731354 202 195 185
-2.670485 1.385597 -14.287193 154 136 132
-3.137052 1.600715 -10.501273 162 151 145
-3.135706 1.601345 -10.502109 152 143 138
-1.970434 1.685431 -12.069642 148 133 126
-3.366172 1.056921 -13.800866 169 151 149
-3.366125 1.056878 -13.801009 169 151 149
-3.852375 -0.594628 -15.722511 169 157 145
-1.910575 1.262170 -15.676813 162 139 123
-3.766008 0.604672 -15.882151 200 191 194
-2.811114 1.796268 -10.833393 144 131 125
-2.602482 1.329620 -15.751283 179 181 176
-3.783234 -0.745810 -15.691827 211 208 203
-3.389092 0.869744 -9.946769 163 150 144
-1.369656 1.489020 -9.028488 130 112 110
-3.163671 0.814311 -15.584299 169 149 138
-3.163671 0.814311 -15.584299 169 149 138
-3.671577 0.638932 -13.777522 163 145 141
-1.925842 1.480186 -16.098808 168 156 156
-2.873838 1.018567 -12.609672 136 127 122
-1.984707 0.623802 -8.500864 218 211 201
-3.357741 1.132388 -15.946208 196 186 184
-3.856842 0.270389 -15.783181 198 185 176
-3.860631 0.279190 -15.778071 204 181 165
-3.872930 -0.164015 -15.730450 214 213 209
-1.495985 1.526432 -8.602143 131 113 109
-3.782270 -0.437179 -15.689672 191 178 172
-3.456198 0.881444 -14.195662 162 143 136
-3.524215 0.723820 -9.856800 164 153 147
-1.834311 1.145710 -15.518198 147 120 109
-3.563096 0.562241 -9.668703 196 191 187
-2.714603 1.312249 -14.444610 163 145 143
-2.447566 1.293449 -15.191833 169 154 149
-3.186165 0.947963 -14.612687 169 148 143
-2.474609 1.504158 -13.851594 157 139 135
-3.645937 -0.697466 -8.991278 87 59 47
-3.506043 0.895484 -13.751720 164 145 141
-3.575646 0.783413 -13.578326 162 144 142
-3.110981 1.062242 -14.523542 170 152 148
-2.100145 1.020445 -9.278270 169 156 148
-2.281306 1.354128 -14.548402 168 148 141
-3.518335 0.781490 -13.306738 185 181 180
-4.531294 -0.123259 -8.600184 143 120 112
-4.107175 0.347370 -10.682149 168 157 151
-2.137054 1.304935 -15.236629 167 142 135
-2.512739 1.174005 -15.050556 155 154 150
-3.874737 0.006339 -15.741795 186 167 152
-3.254800 1.116787 -14.109853 164 146 142
-2.026598 1.472514 -13.437101 155 138 128
-2.811521 -0.164465 -8.758650 107 87 76
-2.336086 1.585658 -11.395350 147 132 125
-1.910355 1.045989 -9.539480 107 90 83
-1.945102 1.384889 -14.383660 159 143 143
-2.787359 1.244062 -12.980604 145 128 118
-3.360669 -0.542847 -9.215450 87 62 57
-2.566142 1.156378 -14.835823 175 170 177
-1.791015 1.362811 -15.733049 161 142 128
-3.371960 -0.570410 -9.235183 58 40 30
-3.700579 0.509382 -9.899474 174 163 157
-4.020224 -0.639130 -9.146066 133 114 107
-2.972208 1.317572 -15.806891 194 177 169
-3.424846 0.992018 -13.871492 165 149 149
-2.250819 1.317825 -14.622841 165 142 136
-2.552052 1.419905 -14.283181 186 183 190
-3.313158 1.071983 -14.066259 160 149 147
-2.752206 1.297342 -13.075096 156 138 126
-3.940541 0.561264 -10.912026 162 152 150
-3.865875 -0.380486 -15.711470 189 172 164
-2.557802 1.337994 -10.113476 147 125 111
-3.975843 0.813161 -12.423197 168 158 159
-3.424873 0.420003 -15.037379 102 93 76
-2.039509 1.417490 -13.234233 155 136 129
-2.215174 1.567440 -15.990146 179 179 179
-3.852539 0.629927 -11.064210 171 163 161
-4.123594 0.624889 -11.687483 177 170 164
-1.825286 1.626530 -12.447080 168 159 162
-3.305576 1.378829 -11.762643 164 156 154
-3.305405 1.374651 -11.764090 171 166 163
-2.015884 1.181063 -15.395424 146 129 122
-2.373691 1.481379 -14.128366 163 145 145
-2.373779 1.481205 -14.128532 163 145 145
-3.651286 0.620454 -14.094331 166 152 151
-3.709592 0.521297 -9.937589 176 167 162
-4.559584 0.274870 -7.793486 162 156 144
-1.125604 1.267890 -9.570380 82 54 50
-3.462924 0.947360 -13.665157 169 156 150
-2.398545 1.526313 -12.084816 166 157 162
-1.899981 1.035624 -9.095487 126 107 100
-3.656998 -0.543094 -9.459170 141 128 120
-1.904341 1.167106 -15.353018 144 125 121
-3.740362 -0.550118 -15.680866 180 177 168
-3.532793 -0.691657 -9.091443 57 40 30
-2.090297 1.249075 -15.062968 151 133 121
-3.498895 -0.590181 -9.270079 135 122 113
-3.496698 -0.596630 -9.271201 130 118 106
-3.623167 0.752398 -15.800542 214 215 210
-3.519592 -0.507144 -9.432743 80 73 55
-4.701277 0.204888 -7.557494 155 136 129
-3.560361 0.150581 -15.572250 170 152 142
-3.757925 0.514289 -10.032060 178 174 165
-3.777712 -0.602050 -15.683040 172 151 134
-3.777712 -0.602050 -15.683040 172 151 134
-1.458011 1.234929 -15.730432 146 128 114
-3.282286 0.150718 -7.979212 161 143 121
-1.400756 1.412136 -8.211363 225 218 208
-3.162250 1.538348 -10.348697 171 164 158
-2.603770 1.480749 -15.818934 196 173 165
-3.394687 0.754327 -14.557770 166 142 138
-3.393468 0.753411 -14.558445 166 142 138
-2.929858 -0.328861 -9.114305 119 103 87
-3.572778 -0.547646 -15.591531 191 188 181
-2.277997 1.480517 -15.775094 186 169 159
-1.826874 1.471944 -15.780948 184 166 156
-1.827283 1.472927 -15.780464 186 168 158
-3.097127 1.010109 -15.183741 178 158 149
-2.763664 -0.149197 -8.777298 125 107 95
-3.004335 1.529665 -10.173566 188 179 172
-1.793044 1.240257 -15.680399 141 108 89
-2.315448 1.339710 -12.956952 150 131 124
-3.424384 -0.482793 -9.341003 137 127 115
-1.082532 1.746229 -8.874793 117 94 88
-3.358176 1.057581 -13.635595 159 144 141
-3.358176 1.057581 -13.635595 159 144 141
-3.165671 -0.590127 -8.744706 110 94 81
-2.699355 1.429624 -13.494415 153 142 136
-3.374109 1.032098 -14.003899 193 193 195
-3.229092 1.127046 -11.170317 180 170 161
-2.314395 1.227285 -9.812154 204 196 185
-1.411793 1.585785 -8.529794 168 163 160
-4.020914 -0.438635 -8.649299 131 118 112
-3.563628 0.455983 -15.709113 167 150 134
-4.421330 -0.472047 -9.278780 150 140 130
-3.883248 0.600015 -10.631613 175 168 162
-1.119828 1.740130 -8.822603 123 103 94
-2.893598 1.351491 -14.045565 155 144 140
-2.539138 1.401607 -10.109635 175 159 143
-3.281322 1.359783 -11.595399 175 166 159
-3.558951 -0.024567 -15.020960 147 125 111
-3.589974 0.667358 -10.374597 157 142 137
-3.624696 0.526404 -13.216856 168 156 156
-3.187124 -0.568976 -9.097276 72 55 47
-3.929293 -0.647228 -9.006776 109 82 73
-2.727509 1.211335 -12.847758 172 162 160
-1.896836 1.463005 -14.074398 159 145 142
-2.842055 1.210799 -12.955796 140 121 107
-2.459783 1.196765 -15.612163 188 179 174
-3.741990 0.408872 -13.494783 155 142 136
-1.325403 1.593308 -8.455754 202 199 184
-2.133548 1.509995 -13.941068 176 167 168
-2.777693 1.293802 -13.090248 156 139 131
-3.121709 1.238424 -15.808831 188 178 169
-2.148412 1.623159 -12.241347 164 158 160
-2.224517 1.575171 -15.911946 183 173 171
-2.179040 1.512887 -16.107489 166 157 162
-3.463774 0.678449 -9.616262 186 177 168
-2.437878 1.462865 -13.391431 155 140 133
-1.810614 1.206328 -15.638246 171 168 161
-0.775345 1.391846 -8.342865 161 152 147
-3.699352 1.029190 -11.695520 190 185 181
-3.673878 0.637580 -13.833308 164 154 153
-3.773534 0.359376 -15.755198 210 208 209
-1.686727 1.290743 -8.541490 169 155 152
-3.317585 -0.627168 -8.735495 100 86 77
-4.251306 0.449343 -11.635201 194 187 181
-3.710912 0.609299 -10.228112 176 169 163
-3.510555 0.037204 -15.024539 115 95 84
-3.914312 -0.140461 -15.755110 206 200 200
-2.050374 1.332490 -10.071784 110 93 85
-2.633802 1.223741 -15.108061 185 168 158
-2.633802 1.223741 -15.108061 185 168 158
-3.869678 -0.528554 -15.726512 188 175 166
-2.852178 -0.277082 -9.083690 143 129 118
-2.987465 -0.396969 -9.020946 134 122 108
-3.374294 0.942328 -13.262016 188 185 180
-2.931993 1.095307 -12.796703 172 167 161
-3.598092 -0.654406 -8.837937 96 74 61
-3.603044 -0.651875 -8.839970 89 71 59
-0.961994 1.472262 -8.276442 173 160 144
-0.675156 1.376066 -8.408884 149 127 114
-3.689474 0.495587 -15.747865 190 174 161
-1.611046 1.396127 -8.960117 142 127 122
-1.877679 1.642878 -11.876049 163 150 141
-2.211648 1.503674 -14.023670 158 144 143
-3.087634 -0.299756 -8.320951 99 77 64
-4.210152 0.460593 -11.554647 192 185 179
-1.224551 1.655779 -8.902788 178 174 165
-3.803938 -0.610319 -9.592986 160 145 126
-1.683549 1.346112 -13.295183 164 154 152
-3.027188 -0.504372 -8.784279 116 104 92
-2.194879 1.500220 -15.781550 199 177 164
-2.246007 1.522485 -13.768993 155 140 133
-3.577230 -0.464638 -15.018227 187 176 170
-2.427878 1.508388 -13.679248 161 146 141
-4.267408 0.424306 -11.622676 179 170 161
-3.009957 -0.360046 -9.136392 140 130 121
-3.112282 -0.427200 -9.165416 107 89 79
-3.819316 0.947422 -11.837851 180 171 164
-1.299887 1.209707 -13.816646 151 126 119
-4.676560 0.236525 -7.668690 179 175 164
-3.808453 -0.655049 -9.319825 116 103 86
-2.298261 1.509097 -13.581386 159 144 139
-2.821720 1.242759 -13.006813 172 164 162
-2.344056 1.195562 -12.640873 152 145 135
-3.420506 -0.625381 -8.655030 89 60 46
-3.464594 -0.470094 -9.418398 100 81 67
-3.931852 -0.674829 -9.194513 128 110 98
-2.359545 1.439016 -10.049666 198 191 181
-3.801762 -0.092474 -15.700418 196 189 183
-2.218863 1.503763 -13.540031 181 177 178
-1.211092 1.395240 -9.468560 166 162 153
-3.603543 0.293231 -15.203275 177 149 145
-2.230560 1.223905 -12.694957 149 141 138
-3.747264 0.686027 -10.913163 156 142 141
-2.718993 1.410242 -14.139736 190 188 193
-2.366950 1.474102 -14.171998 165 146 142
-2.367328 1.475149 -14.171545 165 152 146
-2.983211 1.348050 -11.123959 141 124 116
-3.698319 0.669946 -15.817088 214 209 205
-3.720483 0.160069 -13.198592 120 104 91
-1.140227 1.539994 -8.328038 166 157 152
-3.864482 0.620506 -10.859392 162 150 150
-3.873448 0.069526 -15.750239 189 175 166
-3.460144 -0.638914 -8.755818 129 108 103
-3.437125 0.471193 -15.581187 195 189 189
-2.964455 1.176626 -14.466728 168 152 153
-1.848537 1.150399 -9.237882 127 112 107
-3.807447 0.318203 -15.761520 214 211 206
-3.807447 0.318203 -15.761520 214 211 206
-3.530758 1.264926 -11.880073 161 150 144
-2.032114 1.231959 -12.770111 124 109 104
-3.114494 1.614341 -10.551892 155 145 144
-1.137757 1.163214 -7.988950 185 167 153
-3.692675 0.653187 -11.507777 123 106 98
-3.598765 0.299975 -9.578991 178 169 162
-3.598765 0.299975 -9.578991 178 169 162
-3.671501 1.092319 -11.734759 177 168 159
-4.782886 0.197769 -7.886838 183 175 164
-3.275572 1.022848 -9.884125 175 166 157
-3.919925 0.546551 -10.473718 172 164 161
-3.934680 0.475650 -10.347626 177 170 164
-4.757155 0.063375 -8.240487 158 140 126
-3.182082 1.400334 -11.569784 161 154 148
-2.359486 1.121636 -9.770850 177 160 150
-3.415878 -0.659469 -8.957133 93 77 62
-3.157762 1.568576 -10.428821 153 142 138
-4.141724 0.386213 -11.275697 172 162 160
-3.328822 -0.625182 -8.696556 106 91 84
-2.583471 0.545133 -9.178995 199 191 180
-3.704942 0.396180 -13.347562 156 141 138
-2.373522 0.849279 -8.919853 205 195 186
-1.541393 1.464398 -8.593749 178 164 153
-1.707827 0.345293 -8.216378 196 187 182
-2.412256 1.083697 -9.822981 200 193 183
-1.822789 1.148994 -8.545203 183 182 178
-3.413831 -0.755482 -15.012083 180 179 174
-3.760860 0.462542 -9.940360 197 194 187
-3.403998 -0.611215 -9.154352 98 81 71
-3.840996 -0.663538 -15.732388 211 207 204
-2.331865 -3.040506 -8.900463 232 222 212
-3.504734 -0.583527 -9.300199 74 56 46
-3.067327 0.901336 -15.053878 150 147 142
-3.547931 0.269105 -15.061681 165 144 127
-3.735208 -0.185874 -15.698629 172 149 135
-3.926698 -0.288449 -15.762614 206 200 200
-3.201484 -0.619248 -8.761313 81 57 47
-2.264539 1.505951 -15.785448 211 206 200
-3.687715 -0.019138 -15.672801 192 181 175
-1.789105 0.102883 -8.426455 124 94 68
-1.837229 1.168489 -9.100363 136 121 114
-2.970406 1.179579 -10.972921 118 107 101
-3.783422 0.334294 -14.004821 175 165 164
-4.033063 0.094623 -10.246224 175 164 158
-2.619147 1.462845 -14.012031 182 180 183
-3.778284 0.530592 -15.825427 219 204 199
-1.995370 0.624924 -8.529994 154 149 146
-1.995370 0.624924 -8.529994 154 149 146
-3.935497 0.213833 -10.052465 172 162 152
-3.265782 0.895413 -12.945037 119 101 91
-3.933754 0.758087 -11.857509 131 108 92
-2.954669 1.282833 -13.290923 173 168 165
-1.918813 1.087678 -8.732203 171 158 150
-3.540090 0.068567 -15.447335 170 160 161
-3.603042 0.218023 -9.574750 164 154 145
-3.180830 1.210199 -13.703939 143 128 121
-3.180227 1.209839 -13.704222 146 131 128
-3.569359 -0.617043 -9.232903 131 119 105
-3.988078 0.729135 -11.833294 179 172 166
-3.248975 -0.377936 -9.393000 71 44 33
-3.249363 -0.377827 -9.392444 69 42 33
-4.397964 -0.010529 -11.553381 191 183 181
-3.597060 -0.057608 -15.560227 168 139 125
-1.374867 0.715429 -7.972104 179 159 150
-3.144237 -1.578888 -15.630511 191 173 159
-2.547553 1.375476 -10.147904 132 113 96
-1.195395 1.485312 -8.319646 132 112 103
-3.534798 -0.664615 -15.023172 143 118 96
-3.833488 0.212844 -15.754436 188 167 150
-3.833488 0.212844 -15.754436 188 167 150
-2.436739 0.919187 -9.405947 165 156 147
-3.605923 0.715040 -13.505588 155 138 131
-1.607002 1.169121 -8.255646 171 155 139
-3.964085 -0.208803 -15.907310 152 144 155
-2.014434 0.682607 -8.533258 222 215 209
-3.656461 -0.670990 -9.087373 93 74 59
-3.770976 -0.810036 -15.691655 174 153 136
-3.564042 -0.214518 -15.479667 163 142 137
-3.831772 0.022695 -15.723832 182 165 149
-3.699750 0.542545 -13.571799 156 138 134
-3.602198 -0.531055 -15.055249 195 184 180
-4.021042 0.498506 -10.844476 169 159 158
-3.538202 -0.541033 -15.542243 155 136 122
-4.006860 0.504353 -11.017991 151 137 136
-3.566347 -0.417971 -15.011207 163 142 125
-1.770103 1.001833 -8.336482 216 206 197
-3.367728 -0.431450 -9.422518 81 63 53
-3.501997 0.882558 -13.966542 160 142 140
-3.548155 0.426200 -15.185124 171 152 148
-3.785378 -0.843903 -15.722985 198 193 189
-3.725099 -0.723217 -15.675842 193 188 184
-2.329829 1.223299 -15.628951 153 135 123
-3.510516 -1.199586 -15.648616 205 204 199
-3.353986 -0.663047 -8.893461 72 55 37
-3.795067 -0.668100 -15.696792 175 150 130
-3.340629 -0.517358 -9.208458 130 117 109
-3.509068 0.897344 -13.749205 163 145 145
-3.262366 -0.526910 -9.155898 127 113 102
-3.679999 0.352329 -13.188304 121 102 95
-3.590236 -0.654463 -8.878768 92 74 60
-2.417246 -2.861385 -8.950956 186 174 158
-3.851786 0.270583 -15.785557 201 190 184
-3.672733 0.644698 -13.754518 156 142 141
-3.953214 -0.233420 -15.819950 206 206 208
-3.740178 -0.545414 -15.678585 182 175 167
-3.613643 -0.405460 -15.039756 199 191 188
-3.491836 -0.459813 -14.993121 128 103 83
-2.292585 1.198752 -9.767638 205 195 186
-3.534299 -0.453794 -15.002069 171 158 152
-3.609924 -0.773258 -15.664220 139 110 92
-3.839931 -0.544446 -15.706397 207 200 194
-3.839631 -0.544589 -15.706984 207 198 191
-3.538208 0.848870 -13.721911 160 146 143
-3.819668 -0.712817 -15.717646 184 168 153
-3.562990 0.665588 -9.886047 166 155 149
-3.604857 0.262127 -15.220777 173 151 140
-3.291488 0.930895 -14.469907 169 157 159
-3.175253 0.825287 -15.610425 171 157 144
-3.679635 0.594737 -15.774934 196 179 169
-3.709112 0.497718 -13.504538 162 147 144
-3.710902 0.498112 -13.503227 158 140 138
-3.653572 0.064364 -15.101336 164 150 141
-3.140734 0.970348 -15.152977 175 165 155
-3.776800 -0.395670 -15.690084 168 149 134
-3.287764 -1.181965 -15.578606 181 167 154
-3.607639 -0.604030 -9.326942 84 68 55
-3.609202 -0.123236 -15.032003 178 165 157
-3.556120 -0.507752 -15.550510 185 176 171
-1.915441 0.992254 -9.113014 94 77 67
-3.699888 0.618259 -15.791581 217 213 210
-3.699888 0.618259 -15.791581 217 213 210
-3.566836 -0.626283 -15.056219 191 184 178
-3.482670 0.911419 -13.943181 184 175 178
-1.629970 1.193382 -8.297337 162 152 143
-3.663162 -0.561512 -9.444970 93 75 61
-4.123730 0.251378 -10.646771 163 152 146
-1.202418 1.651807 -8.740778 174 164 155
-3.762933 -0.328751 -13.419053 165 154 152
-3.374644 1.034385 -14.002935 192 183 184
-3.424023 -0.958811 -15.577786 156 131 111
-3.477939 0.690444 -10.406152 152 142 140
-2.353450 0.978250 -8.935669 153 143 133
-3.802060 0.199421 -15.740303 217 212 208
-4.060740 0.009209 -10.333328 176 169 163
-3.629335 0.459047 -13.158261 125 105 98
-3.611112 -0.008098 -15.043792 191 186 182
-3.829139 -0.020464 -13.583474 183 177 179
-3.696822 -0.102296 -15.673806 193 188 184
-3.040502 1.002813 -15.691889 169 150 133
-3.151362 0.701809 -15.042049 87 65 51
-3.373671 0.876140 -14.411133 159 144 147
-3.435192 -0.375459 -9.586410 108 87 70
-3.558600 0.232073 -15.610011 190 185 182
-3.669151 -0.293575 -15.175430 193 182 186
-3.951682 0.809192 -11.878967 207 202 196
-3.587769 0.152556 -15.051563 173 156 148
-3.818200 -0.438382 -15.695153 167 148 131
-2.955202 1.347127 -13.666120 165 149 149
-3.548132 0.384931 -14.644434 168 154 154
-3.823198 0.170509 -13.931555 188 184 185
-3.953280 -0.063559 -15.936764 168 153 146
-3.953280 -0.063559 -15.936764 168 153 146
-3.681021 -0.275975 -15.658833 169 150 136
-3.560953 -0.373310 -15.008391 177 170 162
-3.528521 -0.815667 -15.619166 177 160 150
-3.495104 0.618005 -12.982581 127 119 117
-3.604222 -0.128112 -15.571181 189 181 178
-3.454155 0.941237 -13.986305 180 178 183
-3.594346 0.124144 -15.050952 192 184 181
-3.898246 -0.632208 -9.470392 94 80 71
-3.805853 0.317736 -15.762329 214 211 206
-3.606574 -1.018592 -15.654475 181 162 145
-3.675430 0.633556 -15.776624 212 204 201
-3.673180 0.631832 -15.778328 212 207 204
-3.532603 0.366159 -15.065620 197 187 185
-3.559801 -0.006617 -15.371137 188 182 184
-1.532245 1.142323 -8.149517 219 209 199
-3.362407 0.281352 -15.019716 103 90 81
-3.682389 -0.142900 -15.659519 189 186 181
-1.693732 0.220018 -8.255472 175 154 135
-3.353064 0.551349 -15.422572 170 159 157
-3.451418 0.855056 -13.276901 178 172 172
-3.605617 0.259749 -15.666325 196 191 187
-3.187698 -0.363652 -9.359349 120 103 87
-4.228164 0.225739 -11.270674 176 163 157
-3.626639 0.603158 -13.326210 153 135 131
-3.338288 0.950288 -14.349489 161 142 144
-3.908728 -0.110244 -15.754121 187 170 163
-3.872090 0.187298 -15.775091 197 183 174
-2.376484 1.138819 -9.789221 195 188 182
-3.606149 1.003998 -11.502958 201 196 192
-3.794614 -0.176598 -13.459328 152 133 127
-1.823873 0.092797 -8.446670 105 88 72
-3.648480 0.595408 -15.754242 212 212 210
-3.699576 0.530774 -15.769001 192 175 165
-3.896598 -0.160162 -15.740046 185 167 157
-4.223547 0.533904 -12.313021 170 164 166
-3.776029 -0.646232 -15.685798 187 184 179
-1.952802 0.998473 -9.159972 141 126 119
-3.427941 0.953536 -13.477181 163 152 148
-3.633114 0.293030 -15.712003 176 164 152
-3.883958 0.154459 -15.778768 210 202 199
-1.975937 1.208751 -15.046417 131 114 104
-4.226535 -0.073495 -11.028049 147 129 115
-2.857794 1.380979 -15.804733 212 204 201
-2.570949 1.400284 -10.177691 179 166 150
-4.230759 0.334330 -11.411495 194 185 180
-3.542785 0.800016 -13.460486 153 138 133
-3.338699 0.822503 -14.555569 186 181 185
-3.657455 0.695663 -11.537870 137 123 110
-3.120817 -0.510732 -8.571738 113 93 84
-3.549689 -0.602499 -15.020051 149 130 113
-3.671919 1.086871 -11.737655 180 171 162
-3.516641 0.184321 -15.377175 181 179 182
-3.707959 0.672430 -11.569939 159 150 141
-3.631456 0.492794 -13.195916 136 121 114
-3.746032 0.571021 -15.811332 193 179 168
-3.321715 0.621163 -15.540423 192 184 181
-2.574032 1.314638 -10.087596 166 154 140
-3.994518 -0.656693 -9.443329 133 117 104
-3.800334 -0.194840 -13.491023 175 166 167
-3.546339 0.325061 -15.067098 188 179 174
-3.539016 0.806893 -14.100409 179 177 182
-4.723687 0.076582 -8.235459 176 162 151
-4.479276 0.240685 -7.351735 170 153 143
-3.651794 0.064145 -15.654440 188 181 175
-3.653923 0.063787 -15.653681 190 187 182
-3.601379 0.318061 -15.684127 194 181 173
-2.705807 1.411704 -13.410511 169 160 155
-3.637417 0.665739 -13.592248 176 174 175
-4.448151 0.221478 -7.255691 200 183 173
-2.951599 1.283549 -15.781729 192 182 173
-3.053431 1.188042 -15.767427 177 161 148
-3.633875 -0.575307 -15.646153 157 132 112
-1.650812 1.243894 -8.375605 164 150 141
-3.184102 -0.454797 -9.174904 111 97 88
-3.629937 0.067466 -15.634343 180 166 157
-4.031807 0.284215 -7.789492 162 152 140
-4.031807 0.284215 -7.789492 162 152 140
-3.141894 -0.440601 -9.131740 115 99 84
-2.169327 1.314254 -12.894843 147 128 121
-3.890088 0.092373 -15.765863 211 200 198
-3.712781 0.512389 -14.030813 184 178 182
-2.908840 -0.303027 -9.137510 121 102 87
-2.101753 1.273257 -12.822721 147 138 133
-3.979350 0.023959 -10.097291 150 141 134
-3.696421 0.424631 -13.318628 170 166 165
-3.541820 -0.651141 -15.578685 190 178 166
-4.674610 0.233715 -7.666129 181 165 150
-4.672980 0.233683 -7.666276 177 167 155
-4.393259 0.282612 -7.404104 164 146 134
-3.415829 0.574793 -15.639576 188 179 174
-3.632509 -0.278445 -15.046212 203 198 195
-3.707888 0.455980 -13.417436 171 163 161
-3.062160 1.276675 -11.122812 172 161 157
-3.737963 0.183897 -13.283887 150 139 137
-3.391798 1.024338 -13.934801 188 184 185
-3.529474 0.813485 -15.770422 210 202 199
-3.712366 0.503155 -15.763037 203 196 190
-3.714223 0.503622 -15.761880 217 212 209
-3.444987 0.797207 -14.375557 164 159 163
-3.742183 -0.335962 -15.697603 167 149 135
-3.299355 0.443528 -9.285748 168 154 141
-2.042749 1.418809 -13.211397 153 140 132
-3.860947 0.316969 -15.809077 192 175 168
-3.749188 0.348731 -14.131200 161 151 150
-3.183805 1.234354 -15.853760 209 204 201
-2.033665 0.689747 -8.618823 178 168 156
-3.616256 0.165323 -15.652038 171 153 143
-3.366509 1.014054 -14.082527 173 171 172
-1.987001 1.200419 -15.590731 158 141 133
-3.152315 0.879603 -15.638341 175 160 153
-3.819796 0.499541 -15.934858 188 183 187
-3.303565 1.029590 -13.288050 162 145 138
-3.486634 0.786282 -15.749514 190 183 175
-3.811222 0.232822 -13.922049 188 186 189
-3.371312 0.829410 -13.031422 150 140 138
-3.279396 0.646363 -15.500533 187 183 182
-4.802339 0.191068 -7.924084 152 133 119
-4.181653 0.200478 -10.893072 163 140 124
-1.180001 1.504673 -8.215118 170 152 140
-3.746678 0.348572 -15.740382 188 178 168
-3.034114 1.120056 -12.992706 140 125 120
-3.004490 1.268659 -11.058528 153 142 138
-3.795755 0.485431 -16.030831 179 173 177
-3.363323 0.212752 -9.303603 138 124 111
-1.579512 1.449858 -8.462275 164 155 150
-1.335099 0.749337 -7.949928 164 133 113
-3.301540 0.982326 -13.199118 161 151 150
-2.100856 1.418672 -13.176931 176 167 162
-2.035613 1.251688 -15.057016 176 166 164
-3.482743 0.529607 -15.127641 180 167 161
-4.486787 0.244248 -7.371853 196 188 177
-2.498952 1.205512 -9.944719 136 114 100
-4.419194 0.257441 -7.308872 199 185 174
-2.862585 -0.305186 -8.742214 78 58 47
-3.261131 1.083145 -14.199341 187 182 188
-3.655966 0.038675 -15.173049 168 154 151
-3.582233 1.138946 -11.618581 197 193 190
-2.563561 0.408721 -8.860244 186 177 172
-2.462642 0.735774 -9.122277 164 145 113
-3.488298 0.876394 -14.106190 171 156 153
-3.385172 0.706282 -15.122526 206 203 198
-3.384419 -0.397436 -9.525915 98 81 63
-2.388191 1.591553 -11.783898 155 144 142
-3.811832 -0.535293 -15.692752 188 171 161
-3.409400 -0.041009 -9.366417 113 95 81
-4.284482 -0.108912 -11.215399 176 167 162
-1.804535 1.320571 -12.936175 117 106 104
-3.703621 -0.145518 -13.127094 101 83 73
-2.136828 1.390679 -15.739449 160 146 135
-2.120116 0.599015 -8.597271 194 186 175
-3.507532 0.862090 -13.560250 184 176 174
-4.317610 -0.102615 -11.306276 190 185 179
-1.117119 1.428542 -9.393327 142 125 115
-2.987047 1.239872 -11.023106 136 125 121
-2.342039 0.988895 -8.852277 180 166 153
-3.704336 -1.410479 -9.857228 160 146 135
-3.486005 0.462489 -14.696538 173 159 158
-4.042774 0.247594 -10.307193 177 169 166
-3.079808 1.164511 -11.065869 149 131 121
-3.904189 0.254622 -15.931800 187 183 182
-2.709587 1.114098 -12.641023 137 117 108
-3.843163 -0.667692 -9.420445 104 85 71
-3.715249 0.209825 -9.727160 159 149 139
-3.047002 1.659652 -10.494288 167 158 151
-2.948341 0.935985 -10.968015 80 66 57
-3.651972 0.637419 -13.480890 178 172 174
-3.585058 -0.354375 -15.559624 177 160 153
-3.379419 0.643564 -15.653779 174 160 147
-4.153210 -0.047823 -10.732790 153 138 131
-4.337958 -0.075226 -11.331391 179 172 166
-3.569124 -0.365563 -15.531718 186 175 169
-3.485148 0.060232 -9.440384 159 146 137
-3.633944 0.073733 -15.072729 193 185 182
-2.928789 -0.308831 -9.171834 82 65 47
-1.656966 1.294767 -8.492154 185 172 166
-1.981823 1.393336 -13.168640 175 166 161
-3.586038 0.486956 -9.648535 174 165 158
-3.608958 -0.363813 -15.585719 181 172 163
-3.475890 0.874445 -15.772118 198 185 176
-4.113306 0.632874 -11.721283 162 149 140
-2.684778 1.101822 -12.598488 124 107 97
-2.309759 1.273479 -15.671759 176 167 158
-3.530690 0.398924 -9.507453 169 155 144
-1.924475 1.074224 -8.745690 160 150 141
-4.664760 0.239970 -7.736039 152 133 126
-1.992791 0.680570 -8.511042 202 195 187
-1.990989 0.680354 -8.511171 206 197 188
-1.917471 0.958203 -8.564209 174 160 151
-3.653346 -0.500751 -15.649909 155 133 119
-3.520731 0.852711 -13.532307 170 157 149
-3.721160 -0.709320 -9.197460 95 77 65
-3.472244 0.974946 -15.832948 195 184 180
-1.612735 1.144799 -8.265141 199 189 179
-3.365706 0.874086 -9.807665 164 153 147
-3.571107 0.676773 -10.130833 167 157 158
-3.636574 0.199033 -9.616875 153 140 131
-3.525416 0.612894 -14.477113 182 177 181
-2.900035 1.343347 -11.024192 116 101 98
-2.543085 0.547247 -9.149431 159 145 136
-4.287497 0.308475 -11.527526 185 178 172
-3.686607 0.098896 -13.082611 84 66 56
-3.657031 -0.098637 -15.086072 165 147 133
-3.710900 -0.605069 -15.673947 164 148 135
-3.774575 -0.442609 -13.647030 164 151 143
-3.916260 0.817027 -11.846340 198 189 184
-3.124952 1.230537 -14.004237 183 174 177
-1.380224 1.197409 -9.525397 99 82 74
-4.587097 0.258317 -7.590414 177 167 157
-4.076796 0.339196 -10.523683 175 166 161
-3.338085 0.922948 -13.116739 169 158 156
-4.013949 0.273333 -10.246274 186 179 173
-2.000381 0.722397 -8.538286 191 182 173
-3.394776 0.212455 -9.336124 154 142 128
-1.931883 0.808633 -8.421501 186 175 169
-3.506548 0.590006 -9.596382 180 169 163
-2.322253 1.039346 -9.721690 171 165 153
-3.690398 -0.013292 -9.683329 144 128 115
-3.457843 -0.059529 -9.417148 142 125 115
-4.359091 0.293786 -7.514919 162 148 135
-2.522592 1.264824 -15.705723 168 146 133
-3.615734 0.317491 -14.551354 180 168 168
-3.742796 0.241787 -9.772346 186 177 170
-3.732244 0.593274 -15.808074 196 186 177
-2.471248 1.182103 -15.571973 181 170 168
-2.941490 1.313155 -11.033805 116 101 96
-3.575800 -0.577136 -15.595583 167 148 133
-3.154635 1.137095 -11.113278 177 167 158
-3.169596 1.417153 -10.172559 175 166 161
-2.661476 1.397725 -15.768419 206 198 195
-3.419542 -0.527292 -14.987420 124 105 91
-3.849806 0.783198 -11.735751 198 191 185
-2.486815 -0.008150 -9.080720 114 94 83
-3.379034 0.924902 -15.757931 188 182 170
-3.642990 0.570296 -9.904665 183 175 172
-3.829223 -0.242382 -13.844334 170 159 153
-1.679415 1.141538 -8.335985 195 182 173
-3.381022 -0.483743 -9.316620 113 99 86
-3.703769 0.287029 -9.726720 182 175 167
-1.770639 1.251929 -9.227556 132 114 104
-3.759854 0.245447 -9.797321 186 179 173
-4.290509 0.044774 -11.265704 185 175 173
-1.645409 1.485956 -12.898066 167 162 159
-3.705430 -0.058478 -13.128392 97 75 64
-3.852348 0.299161 -9.951126 188 180 177
-4.133312 -0.123421 -10.628025 170 160 151
-3.292124 0.670256 -9.422696 179 168 162
-3.214486 1.313540 -10.108601 195 190 187
-3.474587 0.557487 -9.529513 197 190 182
-3.511293 0.898188 -11.358233 190 183 177
-3.781512 0.881515 -11.688430 195 188 182
-2.444937 1.495905 -13.592348 187 178 179
-3.630603 1.191325 -11.925845 187 182 178
-2.704315 1.382009 -13.316599 176 166 164
-1.913378 1.061748 -8.666431 185 174 168
-1.914129 1.061908 -8.666216 185 174 168
-3.420264 0.900421 -13.298258 181 175 175
-3.290725 0.540846 -9.324240 201 197 188
-1.645461 1.380001 -8.955418 132 117 112
-3.452537 0.318476 -9.406100 185 178 170
-2.980006 -0.440212 -8.695187 80 61 47
-3.714066 0.240330 -9.730771 171 162 155
-3.062289 1.510504 -10.188362 182 173 166
-3.492733 -1.975014 -9.694643 213 205 202
-2.658734 1.448321 -14.031806 178 174 175
-3.572064 0.639705 -9.860913 172 165 159
-4.229348 0.183600 -11.178615 176 167 162
-3.455804 0.957443 -13.838560 178 174 175
-2.923686 1.408210 -11.154240 144 135 130
-3.217482 1.064253 -11.141980 165 151 140
-2.656123 1.115914 -12.597620 143 130 124
-3.494427 -0.439986 -9.505217 83 57 42
-3.813523 0.358695 -9.925627 177 168 161
-3.813725 0.358654 -9.925518 182 173 164
-3.164632 1.039953 -11.098823 160 148 136
-4.144211 0.215892 -10.713427 163 156 150
-4.010556 0.122494 -10.185286 177 168 161
-3.045593 1.669854 -10.676854 160 151 146
-3.664524 0.652801 -13.908919 188 184 185
-3.445890 -0.505380 -9.326628 91 72 58
-3.484848 0.280781 -9.438793 174 164 155
-3.312422 1.197466 -10.226536 179 174 170
-2.483262 1.180606 -12.636534 161 150 146
-3.507325 -0.429668 -9.517457 137 128 121
-4.195509 -0.148411 -10.926716 168 155 146
-3.357865 0.795544 -12.944428 123 113 111
-3.302718 1.185591 -10.158871 182 174 171
-3.046072 1.664778 -10.630579 158 147 143
-3.338935 -0.952300 -14.971132 171 166 163
-2.597979 0.330337 -9.018076 148 130 118
-4.270091 -0.026401 -11.171747 166 153 147
-3.612171 -0.589924 -9.376109 47 36 34
-3.622369 -0.465448 -9.591201 144 130 121
-2.477745 0.815901 -9.500488 124 110 101
-3.553607 0.637385 -9.758342 167 156 150
-2.990033 -0.075265 -8.313394 92 72 61
-3.312014 -0.553769 -9.163696 138 121 111
-3.791982 0.831502 -11.678521 202 193 188
-3.792655 0.831797 -11.678171 197 192 188
-3.950453 -0.434790 -15.835928 178 172 174
-1.851737 1.047959 -8.501831 185 178 172
-2.923510 1.109623 -14.651123 186 181 188
-3.476736 0.818740 -15.755561 187 174 165
-2.977496 -0.435217 -8.653312 84 64 53
-3.396019 1.331421 -11.754310 166 155 151
-3.181854 1.509688 -10.645673 159 153 153
-3.036104 1.121187 -11.020050 131 118 109
-4.180495 0.067339 -10.838076 164 157 151
-3.892628 0.206266 -9.978841 187 180 174
-3.157335 1.234454 -11.175654 171 157 148
-3.622670 0.401801 -9.656573 187 180 174
-4.158934 -0.016882 -10.758691 160 147 139
-3.231277 -0.506485 -9.150521 132 116 103
-2.388085 1.307196 -12.887300 152 137 130
-3.601829 0.648930 -10.235444 165 156 151
-2.666393 1.264951 -12.928756 147 134 125
-2.448425 0.798222 -9.287405 162 150 138
-3.015581 1.683972 -10.626694 156 147 140
-3.658536 -0.156485 -15.633428 173 158 151
-1.801861 1.207527 -8.615282 163 148 141
-3.604302 0.608155 -13.272190 145 131 128
-3.331913 0.983665 -10.006161 172 163 158
-3.550708 0.579556 -14.462705 157 142 137
-2.745909 1.370227 -16.180403 153 117 121
94.970814 -60.168328 -44.280461 43 18 14
-3.005000 1.303025 -11.093240 150 139 133
-3.936057 0.108371 -10.026873 183 178 174
-3.585661 0.799913 -11.439570 173 163 154
-3.502967 -0.739850 -15.013830 173 161 149
-2.578974 0.332085 -8.875133 160 147 138
-3.818494 0.831749 -11.716099 201 194 188
-2.123751 1.231578 -9.741789 208 199 190
-3.409399 -0.385723 -9.562772 118 101 83
-3.570019 0.195720 -9.532732 158 141 131
-3.880307 -0.110975 -15.731692 177 153 141
-3.341009 1.004962 -15.767380 198 191 183
-1.698499 -0.310542 -8.552500 178 158 131
-4.354335 0.146458 -11.526174 192 184 182
-4.354198 0.146563 -11.526411 192 184 182
-4.149090 -0.008774 -10.722384 177 166 160
-3.885157 0.833769 -11.816144 199 190 185
-3.779408 0.913709 -11.715189 197 187 185
-3.602063 0.046131 -9.565782 159 146 137
-1.622211 1.345657 -8.439053 195 188 178
-3.363729 0.628136 -9.472915 186 176 166
-3.854442 0.721165 -11.742021 133 119 106
-4.348211 0.324867 -11.762667 167 156 150
-3.672653 -0.618549 -9.370638 88 68 57
-3.882149 0.018164 -9.937943 168 161 151
-4.194052 0.045337 -10.890853 172 163 158
-3.929367 0.328560 -10.107500 181 178 173
-1.818751 1.160729 -8.557642 194 184 182
-3.127395 -0.356695 -9.307184 77 51 36
-1.815801 1.209943 -9.114778 152 139 131
-3.344255 0.956579 -10.098987 147 138 133
