ply
format ascii 1.0
element vertex 1091
property float x
property float y
property float z
property uchar red
property uchar green
property uchar blue
element face 0
property list uchar int vertex_index
end_header
-53.826667 27.262857 734.000000 199 160 145
-53.753333 28.621905 733.000000 144 104 87
-53.753333 30.018095 733.000000 129 98 74
-53.606667 31.328571 731.000000 145 115 99
-53.533333 32.676190 730.000000 167 129 140
-53.386667 33.973333 728.000000 179 140 161
-53.313333 35.311429 727.000000 183 151 164
-53.313333 36.696190 727.000000 186 155 163
-53.166667 37.976190 725.000000 171 136 140
-52.946667 39.194286 722.000000 144 105 102
-52.946667 40.569524 722.000000 145 106 93
-52.800000 41.828571 720.000000 158 118 101
-52.800000 43.200000 720.000000 163 125 106
-52.800000 44.571429 720.000000 158 120 101
-52.580000 45.751429 717.000000 154 114 97
-52.506667 47.051429 716.000000 172 131 110
-52.506667 48.415238 716.000000 180 140 113
-52.506667 49.779048 716.000000 129 86 61
-52.506667 51.142857 716.000000 100 57 40
-52.506667 52.506667 716.000000 104 64 52
-52.360000 53.720000 714.000000 137 103 94
-52.286667 55.002857 713.000000 200 170 159
-52.140000 56.202857 711.000000 198 165 148
-52.066667 57.476190 710.000000 188 154 144
-52.066667 58.828571 710.000000 184 147 154
-51.920000 60.011429 708.000000 195 158 175
-51.846667 61.273333 707.000000 186 153 174
-51.773333 62.531429 706.000000 163 130 147
-51.553333 63.604762 703.000000 135 104 104
-51.553333 64.943810 703.000000 53 23 23
-51.406667 66.094286 701.000000 46 15 31
-51.406667 67.429524 701.000000 182 149 160
-51.406667 68.764762 701.000000 209 170 155
-51.406667 70.100000 701.000000 181 139 113
-51.333333 71.333333 700.000000 156 110 91
-51.186667 72.459048 698.000000 147 104 92
-51.113333 73.682857 697.000000 153 115 107
-50.893333 74.687619 694.000000 147 113 108
-50.893333 76.009524 694.000000 148 118 112
-50.820000 77.220000 693.000000 153 122 114
-50.820000 78.540000 693.000000 162 130 116
-50.820000 79.860000 693.000000 166 129 119
-50.673333 80.945714 691.000000 172 132 130
-50.673333 82.261905 691.000000 167 125 121
-50.600000 83.457143 690.000000 144 104 87
-50.453333 84.525714 688.000000 114 80 70
-50.380000 85.711429 687.000000 113 84 102
-50.380000 87.020000 687.000000 146 120 143
-50.306667 88.200000 686.000000 144 121 124
-50.306667 89.506667 686.000000 114 93 92
-50.160000 90.548571 684.000000 120 97 103
-50.086667 91.717143 683.000000 104 81 91
-50.086667 93.018095 683.000000 92 68 82
-50.013333 94.180952 682.000000 85 57 72
-50.013333 95.480000 682.000000 126 90 104
-50.013333 96.779048 682.000000 200 157 166
-49.866667 97.790476 680.000000 227 176 172
-49.793333 98.940000 679.000000 156 103 90
-49.720000 100.085714 678.000000 139 92 79
-49.573333 101.078095 676.000000 146 103 91
-49.573333 102.365714 676.000000 147 108 99
-49.573333 103.653333 676.000000 146 108 102
-49.500000 104.785714 675.000000 141 103 97
-49.500000 106.071429 675.000000 153 117 115
-49.280000 106.880000 672.000000 166 130 134
-49.206667 107.999048 671.000000 181 149 154
-49.133333 109.114286 670.000000 185 156 161
-49.133333 110.390476 670.000000 159 133 136
-48.986667 111.333333 668.000000 152 123 120
-48.913333 112.437143 667.000000 129 100 97
-48.913333 113.707619 667.000000 124 100 100
-48.840000 114.805714 666.000000 123 97 100
-48.840000 116.074286 666.000000 123 90 97
-48.840000 117.342857 666.000000 136 102 111
-48.693333 118.255238 664.000000 137 105 113
-48.620000 119.340000 663.000000 131 101 105
-48.546667 120.420952 662.000000 123 95 91
-48.546667 121.681905 662.000000 74 50 38
-48.546667 122.942857 662.000000 63 44 29
-48.473333 124.016190 661.000000 179 156 138
-48.473333 125.275238 661.000000 208 173 154
-48.180000 125.768571 657.000000 187 142 122
-48.033333 126.633333 655.000000 167 110 93
-48.033333 127.880952 655.000000 144 90 74
-48.033333 129.128571 655.000000 129 91 73
-47.960000 130.177143 654.000000 137 104 93
-47.960000 131.422857 654.000000 143 108 109
-47.886667 132.465714 653.000000 172 139 150
-47.886667 133.709524 653.000000 175 143 164
-47.813333 134.746667 652.000000 178 147 165
-47.813333 135.988571 652.000000 174 145 149
-47.666667 136.809524 650.000000 136 108 101
-47.666667 138.047619 650.000000 88 69 52
-47.666667 139.285714 650.000000 59 39 28
-47.593333 140.307619 649.000000 67 36 51
-47.520000 141.325714 648.000000 110 79 97
-47.446667 142.340000 647.000000 133 105 110
-47.373333 143.350476 646.000000 138 111 110
-47.373333 144.580952 646.000000 144 115 114
-47.373333 145.811429 646.000000 142 113 110
-47.226667 146.586667 644.000000 140 110 106
-47.153333 147.583810 643.000000 137 107 101
-47.080000 148.577143 642.000000 136 107 96
-47.006667 149.566667 641.000000 131 103 94
-47.006667 150.787619 641.000000 135 105 107
-47.006667 152.008571 641.000000 110 80 90
-46.933333 152.990476 640.000000 97 66 84
-46.786667 153.727619 638.000000 107 79 94
-46.786667 154.942857 638.000000 107 84 90
-46.640000 155.668571 636.000000 120 99 98
-46.640000 156.880000 636.000000 140 110 112
-46.566667 157.842857 635.000000 142 109 110
-46.493333 158.801905 634.000000 142 110 107
-46.493333 160.009524 634.000000 141 109 104
-46.346667 160.708571 632.000000 140 108 105
-46.273333 161.656190 631.000000 137 105 102
-46.273333 162.858095 631.000000 136 104 99
-46.200000 163.800000 630.000000 138 107 99
-46.126667 164.738095 629.000000 139 107 102
-46.053333 165.672381 628.000000 138 107 105
-45.980000 166.602857 627.000000 138 106 112
-45.980000 167.797143 627.000000 137 105 113
-45.980000 168.991429 627.000000 137 106 108
-45.833333 169.642857 625.000000 138 107 107
-45.833333 170.833333 625.000000 138 107 107
-45.760000 171.748571 624.000000 138 107 109
-45.760000 172.937143 624.000000 136 104 110
-45.686667 173.846667 623.000000 136 104 110
-45.613333 174.752381 622.000000 134 104 109
-45.613333 175.937143 622.000000 134 104 109
-45.540000 176.837143 621.000000 134 104 106
-45.540000 178.020000 621.000000 134 103 105
-45.466667 178.914286 620.000000 136 100 106
-45.393333 179.804762 619.000000 137 101 105
-45.320000 180.691429 618.000000 136 106 100
-45.320000 181.868571 618.000000 136 107 93
-45.173333 182.453333 616.000000 135 107 86
-45.100000 183.328571 615.000000 139 108 80
-45.026667 184.200000 614.000000 124 89 57
-45.026667 185.369524 614.000000 60 29 1
-55.071429 -22.762857 771.000000 111 89 92
-54.928571 -21.239048 769.000000 155 120 137
-54.785714 -19.722857 767.000000 176 137 155
-54.785714 -18.261905 767.000000 182 146 156
-54.714286 -16.779048 766.000000 195 162 169
-54.714286 -15.320000 766.000000 189 157 170
-54.571429 -13.824762 764.000000 180 148 161
-54.428571 -12.337143 762.000000 148 116 122
-54.357143 -10.871429 761.000000 78 48 46
-54.357143 -9.421905 761.000000 74 44 34
-54.357143 -7.972381 761.000000 143 110 97
-54.214286 -6.505714 759.000000 148 113 104
-54.071429 -5.046667 757.000000 137 98 95
-53.928571 -3.595238 755.000000 155 114 115
-53.857143 -2.154286 754.000000 183 140 147
-53.857143 -0.718095 754.000000 197 151 161
-53.714286 0.716190 752.000000 182 138 151
-53.714286 2.148571 752.000000 162 120 137
-53.714286 3.580952 752.000000 122 85 102
-53.714286 5.013333 752.000000 113 80 99
-53.714286 6.445714 752.000000 151 118 140
-53.571429 7.857143 750.000000 158 126 143
-53.500000 9.273333 749.000000 159 124 139
-53.500000 10.700000 749.000000 153 115 123
-53.357143 12.094286 747.000000 145 103 107
-53.285714 13.499048 746.000000 151 109 105
-53.285714 14.920000 746.000000 165 122 110
-53.000000 16.253333 742.000000 165 123 105
-52.928571 17.642857 741.000000 162 120 102
-52.785714 19.002857 739.000000 153 114 101
-52.571429 20.327619 736.000000 130 92 83
-52.571429 21.729524 736.000000 130 91 80
-52.571429 23.131429 736.000000 94 56 45
-52.428571 24.466667 734.000000 77 40 31
-52.428571 25.864762 734.000000 146 108 99
-52.428571 27.262857 734.000000 193 155 144
-52.357143 28.621905 733.000000 187 151 137
-52.357143 30.018095 733.000000 181 153 132
-52.214286 31.328571 731.000000 185 157 146
-52.142857 32.676190 730.000000 188 154 171
-52.000000 33.973333 728.000000 171 137 162
-51.928571 35.311429 727.000000 158 130 144
-51.785714 36.595238 725.000000 166 140 141
-51.571429 37.819048 722.000000 171 138 131
-51.571429 39.194286 722.000000 144 107 93
-51.571429 40.569524 722.000000 145 107 91
-51.428571 41.828571 720.000000 156 118 100
-51.428571 43.200000 720.000000 159 123 103
-51.428571 44.571429 720.000000 161 125 103
-51.214286 45.751429 717.000000 162 125 101
-51.142857 47.051429 716.000000 169 132 105
-51.142857 48.415238 716.000000 179 140 110
-51.000000 49.640000 714.000000 158 113 86
-51.000000 51.000000 714.000000 107 57 34
-51.000000 52.360000 714.000000 73 26 10
-51.000000 53.720000 714.000000 74 40 31
-50.928571 55.002857 713.000000 203 176 167
-50.785714 56.202857 711.000000 212 184 170
-50.714286 57.476190 710.000000 190 160 149
-50.571429 58.662857 708.000000 170 140 140
-50.500000 59.926667 707.000000 161 130 136
-50.428571 61.186667 706.000000 141 107 114
-50.285714 62.354286 704.000000 133 100 105
-50.214286 63.604762 703.000000 144 112 109
-50.071429 64.759048 701.000000 94 62 65
-50.071429 66.094286 701.000000 65 32 53
-50.071429 67.429524 701.000000 142 107 124
-50.071429 68.764762 701.000000 192 155 147
-50.071429 70.100000 701.000000 216 174 158
-50.000000 71.333333 700.000000 192 145 135
-49.857143 72.459048 698.000000 149 104 95
-49.785714 73.682857 697.000000 139 101 93
-49.571429 74.687619 694.000000 146 115 107
-49.571429 76.009524 694.000000 140 110 106
-49.500000 77.220000 693.000000 150 120 116
-49.500000 78.540000 693.000000 166 133 125
-49.500000 79.860000 693.000000 184 149 145
-49.357143 80.945714 691.000000 203 167 167
-49.285714 82.142857 690.000000 208 170 167
-49.285714 83.457143 690.000000 183 144 129
-49.142857 84.525714 688.000000 132 92 85
-49.071429 85.711429 687.000000 119 86 105
-49.071429 87.020000 687.000000 129 98 122
-49.000000 88.200000 686.000000 134 106 111
-48.857143 89.245714 684.000000 121 97 93
-48.857143 90.548571 684.000000 126 102 100
-48.785714 91.717143 683.000000 132 105 104
-48.714286 92.881905 682.000000 121 92 88
-48.714286 94.180952 682.000000 64 33 31
-48.714286 95.480000 682.000000 55 23 26
-48.714286 96.779048 682.000000 200 161 162
-48.571429 97.790476 680.000000 226 179 171
-48.500000 98.940000 679.000000 173 123 108
-48.428571 100.085714 678.000000 135 87 69
-48.428571 101.377143 678.000000 134 90 74
-48.285714 102.365714 676.000000 140 102 94
-48.285714 103.653333 676.000000 154 119 117
-48.214286 104.785714 675.000000 166 134 137
-48.142857 105.914286 674.000000 173 141 146
-48.000000 106.880000 672.000000 172 140 145
-47.928571 107.999048 671.000000 160 129 135
-47.714286 108.788571 668.000000 137 105 111
-47.714286 110.060952 668.000000 129 97 105
-47.714286 111.333333 668.000000 143 111 119
-47.642857 112.437143 667.000000 109 80 85
-47.571429 113.537143 666.000000 64 38 41
-47.571429 114.805714 666.000000 75 46 48
-47.428571 115.725714 664.000000 82 51 49
-47.428571 116.990476 664.000000 55 21 20
-47.357143 118.077143 663.000000 70 38 39
-47.285714 119.160000 662.000000 143 112 110
-47.285714 120.420952 662.000000 140 112 103
-47.285714 121.681905 662.000000 89 62 53
-47.214286 122.757143 661.000000 64 38 37
-47.214286 124.016190 661.000000 110 82 81
-47.214286 125.275238 661.000000 168 135 127
-46.928571 125.768571 657.000000 221 179 167
-46.785714 126.633333 655.000000 212 156 141
-46.785714 127.880952 655.000000 147 93 77
-46.714286 128.931429 654.000000 147 108 97
-46.714286 130.177143 654.000000 162 131 129
-46.642857 131.221905 653.000000 164 132 143
-46.642857 132.465714 653.000000 180 149 167
-46.571429 133.504762 652.000000 171 143 168
-46.571429 134.746667 652.000000 111 83 106
-46.428571 135.571429 650.000000 62 34 49
-46.428571 136.809524 650.000000 62 36 39
-46.428571 138.047619 650.000000 89 70 55
-46.357143 139.071429 649.000000 123 104 90
-46.357143 140.307619 649.000000 147 119 129
-46.285714 141.325714 648.000000 151 119 138
-46.214286 142.340000 647.000000 146 117 130
-46.142857 143.350476 646.000000 143 115 120
-46.142857 144.580952 646.000000 141 110 110
-46.142857 145.811429 646.000000 143 111 108
-46.000000 146.586667 644.000000 146 116 110
-45.928571 147.583810 643.000000 139 110 99
-45.857143 148.577143 642.000000 130 102 85
-45.785714 149.566667 641.000000 112 86 73
-45.785714 150.787619 641.000000 100 74 77
-45.714286 151.771429 640.000000 100 74 87
-45.714286 152.990476 640.000000 119 87 110
-45.571429 153.727619 638.000000 136 106 126
-45.500000 154.700000 637.000000 137 113 121
-45.428571 155.668571 636.000000 143 118 118
-45.357143 156.633333 635.000000 141 111 107
-45.357143 157.842857 635.000000 141 110 102
-45.285714 158.801905 634.000000 140 108 103
-45.142857 159.504762 632.000000 139 107 102
-45.071429 160.454286 631.000000 139 107 104
-45.071429 161.656190 631.000000 139 107 104
-45.000000 162.600000 630.000000 139 107 102
-45.000000 163.800000 630.000000 140 108 103
-44.857143 164.476190 628.000000 140 109 101
-44.785714 165.408571 627.000000 140 108 105
-44.785714 166.602857 627.000000 138 106 112
-44.785714 167.797143 627.000000 137 105 113
-44.785714 168.991429 627.000000 137 106 108
-44.642857 169.642857 625.000000 138 107 105
-44.642857 170.833333 625.000000 138 108 104
-44.571429 171.748571 624.000000 138 107 105
-44.500000 172.660000 623.000000 136 105 107
-44.500000 173.846667 623.000000 135 105 110
-44.428571 174.752381 622.000000 134 104 109
-44.357143 175.654286 621.000000 135 103 109
-44.357143 176.837143 621.000000 137 105 111
-44.357143 178.020000 621.000000 138 104 111
-44.214286 178.625714 619.000000 136 102 109
-44.214286 179.804762 619.000000 135 102 105
-44.142857 180.691429 618.000000 133 101 96
-44.000000 181.280000 616.000000 133 104 90
-44.000000 182.453333 616.000000 132 107 83
-43.928571 183.328571 615.000000 138 110 81
-43.857143 184.200000 614.000000 141 105 75
-43.857143 185.369524 614.000000 101 70 42
-53.741905 -24.294286 773.000000 75 48 39
-53.602857 -22.762857 771.000000 142 112 98
-53.463810 -21.239048 769.000000 164 131 125
-53.324762 -19.722857 767.000000 180 145 151
-53.324762 -18.261905 767.000000 183 146 163
-53.255238 -16.779048 766.000000 194 155 176
-53.255238 -15.320000 766.000000 191 153 168
-53.116190 -13.824762 764.000000 169 134 140
-52.977143 -12.337143 762.000000 143 108 107
-52.907619 -10.871429 761.000000 82 49 44
-52.907619 -9.421905 761.000000 65 32 25
-52.768571 -7.951429 759.000000 123 91 80
-52.768571 -6.505714 759.000000 143 109 94
-52.490476 -5.033333 755.000000 152 114 106
-52.490476 -3.595238 755.000000 165 122 135
-52.420952 -2.154286 754.000000 187 142 162
-52.420952 -0.718095 754.000000 195 151 164
-52.281905 0.716190 752.000000 173 131 143
-52.281905 2.148571 752.000000 149 112 126
-52.281905 3.580952 752.000000 138 102 122
-52.281905 5.013333 752.000000 138 102 126
-52.142857 6.428571 750.000000 155 119 140
-52.073333 7.846667 749.000000 156 122 134
-52.073333 9.273333 749.000000 160 122 130
-51.934286 10.671429 747.000000 157 111 116
-51.934286 12.094286 747.000000 155 108 108
-51.864762 13.499048 746.000000 155 109 103
-51.725714 14.880000 744.000000 164 121 107
-51.517143 16.231429 741.000000 159 119 102
-51.517143 17.642857 741.000000 159 122 100
-51.308571 18.977143 738.000000 150 113 87
-51.169524 20.327619 736.000000 134 95 74
-51.030476 21.670476 734.000000 144 100 91
-51.030476 23.068571 734.000000 104 60 59
-50.960952 24.433333 733.000000 75 33 35
-50.960952 25.829524 733.000000 134 92 96
-50.960952 27.225714 733.000000 173 134 137
-50.821905 28.543810 731.000000 188 152 152
-50.752381 29.895238 730.000000 197 163 161
-50.613333 31.200000 728.000000 183 151 154
-50.613333 32.586667 728.000000 179 148 164
-50.543810 33.926667 727.000000 131 102 117
-50.543810 35.311429 727.000000 107 86 85
-50.404762 36.595238 725.000000 168 144 134
-50.196190 37.819048 722.000000 192 158 146
-50.196190 39.194286 722.000000 159 118 106
-50.196190 40.569524 722.000000 142 101 89
-50.196190 41.944762 722.000000 157 118 105
-50.057143 43.200000 720.000000 160 123 109
-49.848571 44.385714 717.000000 161 125 106
-49.779048 45.687619 716.000000 161 124 100
-49.779048 47.051429 716.000000 176 135 112
-49.779048 48.415238 716.000000 176 132 118
-49.640000 49.640000 714.000000 166 117 103
-49.640000 51.000000 714.000000 144 86 66
-49.640000 52.360000 714.000000 72 19 1
-49.640000 53.720000 714.000000 69 32 26
-49.431429 54.848571 711.000000 200 172 171
-49.361905 56.123810 710.000000 208 182 181
-49.361905 57.476190 710.000000 190 163 156
-49.222857 58.662857 708.000000 167 140 122
-49.083810 59.841905 706.000000 151 122 100
-48.944762 61.013333 704.000000 134 98 79
-48.944762 62.354286 704.000000 134 97 85
-48.875238 63.604762 703.000000 152 115 115
-48.736190 64.759048 701.000000 121 85 97
-48.736190 66.094286 701.000000 79 43 71
-48.736190 67.429524 701.000000 111 75 101
-48.666667 68.666667 700.000000 166 131 137
-48.666667 70.000000 700.000000 214 176 175
-48.666667 71.333333 700.000000 203 159 160
-48.527619 72.459048 698.000000 147 102 101
-48.458095 73.682857 697.000000 140 103 91
-48.249524 74.687619 694.000000 147 114 103
-48.249524 76.009524 694.000000 148 116 113
-48.180000 77.220000 693.000000 160 127 133
-48.180000 78.540000 693.000000 170 132 143
-48.180000 79.860000 693.000000 193 155 168
-48.040952 80.945714 691.000000 203 170 179
-47.971429 82.142857 690.000000 196 161 165
-47.832381 83.215238 688.000000 178 139 134
-47.762857 84.402857 687.000000 140 98 94
-47.762857 85.711429 687.000000 130 90 95
-47.693333 86.893333 686.000000 147 111 115
-47.554286 87.942857 684.000000 154 119 118
-47.554286 89.245714 684.000000 137 106 98
-47.484762 90.416190 683.000000 126 100 87
-47.415238 91.582857 682.000000 133 103 89
-47.415238 92.881905 682.000000 138 97 89
-47.415238 94.180952 682.000000 82 39 32
-47.276190 95.200000 680.000000 53 19 9
-47.276190 96.495238 680.000000 175 143 132
-47.276190 97.790476 680.000000 207 167 157
-47.206667 98.940000 679.000000 194 148 133
-47.137143 100.085714 678.000000 164 115 93
-47.137143 101.377143 678.000000 145 99 80
-46.998095 102.365714 676.000000 144 108 104
-46.859048 103.346667 674.000000 162 132 140
-46.859048 104.630476 674.000000 169 145 159
-46.720000 105.600000 672.000000 165 141 154
-46.650476 106.720952 671.000000 162 136 135
-46.580952 107.838095 670.000000 159 125 118
-46.441905 108.788571 668.000000 143 99 93
-46.441905 110.060952 668.000000 144 98 95
-46.372381 111.166667 667.000000 142 99 103
-46.302857 112.268571 666.000000 77 36 44
-46.302857 113.537143 666.000000 63 26 33
-46.302857 114.805714 666.000000 91 56 54
-46.163810 115.725714 664.000000 104 71 52
-46.163810 116.990476 664.000000 71 39 14
-46.094286 118.077143 663.000000 67 34 17
-46.024762 119.160000 662.000000 147 114 99
-46.024762 120.420952 662.000000 149 121 104
-45.955238 121.498095 661.000000 99 71 60
-45.816190 122.385714 659.000000 75 40 44
-45.816190 123.640952 659.000000 74 39 46
-45.816190 124.896190 659.000000 130 95 96
-45.677143 125.768571 657.000000 206 167 162
-45.538095 126.633333 655.000000 226 175 158
-45.538095 127.880952 655.000000 178 125 112
-45.468571 128.931429 654.000000 158 116 120
-45.468571 130.177143 654.000000 166 134 149
-45.399048 131.221905 653.000000 172 145 162
-45.329524 132.262857 652.000000 157 134 152
-45.329524 133.504762 652.000000 138 116 134
-45.190476 134.333333 650.000000 82 59 79
-45.190476 135.571429 650.000000 50 21 43
-45.190476 136.809524 650.000000 78 50 65
-45.190476 138.047619 650.000000 115 91 91
-45.120952 139.071429 649.000000 139 117 112
-45.120952 140.307619 649.000000 151 125 130
-45.051429 141.325714 648.000000 145 116 129
-44.981905 142.340000 647.000000 142 110 126
-44.912381 143.350476 646.000000 142 109 124
-44.912381 144.580952 646.000000 144 107 117
-44.912381 145.811429 646.000000 147 113 120
-44.773333 146.586667 644.000000 143 113 117
-44.773333 147.813333 644.000000 126 98 95
-44.703810 148.808571 643.000000 116 87 73
-44.564762 149.566667 641.000000 114 84 73
-44.564762 150.787619 641.000000 103 77 80
-44.495238 151.771429 640.000000 115 89 100
-44.495238 152.990476 640.000000 135 108 117
-44.286667 153.486667 637.000000 141 113 118
-44.217143 154.457143 636.000000 142 116 112
-44.217143 155.668571 636.000000 140 112 105
-44.147619 156.633333 635.000000 142 111 101
-44.147619 157.842857 635.000000 143 109 102
-44.078095 158.801905 634.000000 141 107 102
-43.939048 159.504762 632.000000 141 106 104
-43.869524 160.454286 631.000000 142 107 105
-43.869524 161.656190 631.000000 142 107 105
-43.800000 162.600000 630.000000 142 108 103
-43.730476 163.540000 629.000000 142 108 101
-43.660952 164.476190 628.000000 143 109 100
-43.591429 165.408571 627.000000 142 108 103
-43.591429 166.602857 627.000000 139 105 112
-43.591429 167.797143 627.000000 137 103 114
-43.452381 168.452381 625.000000 137 103 110
-43.452381 169.642857 625.000000 139 106 111
-43.382857 170.560000 624.000000 140 107 110
-43.382857 171.748571 624.000000 138 107 109
-43.313333 172.660000 623.000000 136 106 111
-43.243810 173.567619 622.000000 136 106 111
-43.243810 174.752381 622.000000 136 105 107
-43.174286 175.654286 621.000000 136 103 108
-43.174286 176.837143 621.000000 140 103 117
-43.104762 177.733333 620.000000 140 105 119
-43.035238 178.625714 619.000000 135 105 110
-43.035238 179.804762 619.000000 132 103 102
-42.965714 180.691429 618.000000 136 104 99
-42.826667 181.280000 616.000000 133 102 92
-42.826667 182.453333 616.000000 133 106 91
-42.687619 183.030476 614.000000 137 109 92
-42.687619 184.200000 614.000000 136 104 84
-42.618095 185.067619 613.000000 118 87 66
-42.618095 186.235238 613.000000 86 62 38
-52.269524 -25.766667 773.000000 148 121 122
-52.269524 -24.294286 773.000000 167 134 124
-52.134286 -22.762857 771.000000 189 155 145
-51.999048 -21.239048 769.000000 193 159 157
-51.863810 -19.722857 767.000000 197 165 170
-51.863810 -18.261905 767.000000 175 138 156
-51.863810 -16.800952 767.000000 148 108 126
-51.796190 -15.320000 766.000000 143 103 108
-51.660952 -13.824762 764.000000 138 97 95
-51.660952 -12.369524 764.000000 143 103 96
-51.458095 -10.871429 761.000000 118 81 73
-51.458095 -9.421905 761.000000 104 69 63
-51.322857 -7.951429 759.000000 123 90 83
-51.322857 -6.505714 759.000000 153 119 110
-51.052381 -5.033333 755.000000 189 155 153
-51.052381 -3.595238 755.000000 194 156 169
-50.984762 -2.154286 754.000000 160 118 137
-50.984762 -0.718095 754.000000 116 72 85
-50.849524 0.716190 752.000000 116 75 83
-50.849524 2.148571 752.000000 133 99 106
-50.849524 3.580952 752.000000 157 123 135
-50.714286 5.000000 750.000000 155 115 135
-50.714286 6.428571 750.000000 134 92 110
-50.646667 7.846667 749.000000 139 101 108
-50.646667 9.273333 749.000000 185 145 146
-50.511429 10.671429 747.000000 181 132 135
-50.511429 12.094286 747.000000 153 102 101
-50.443810 13.499048 746.000000 150 104 98
-50.308571 14.880000 744.000000 155 114 102
-50.105714 16.231429 741.000000 161 123 107
-49.970476 17.595238 739.000000 157 119 100
-49.902857 18.977143 738.000000 156 118 91
-49.767619 20.327619 736.000000 151 109 87
-49.632381 21.670476 734.000000 148 102 99
-49.632381 23.068571 734.000000 134 84 87
-49.564762 24.433333 733.000000 88 45 39
-49.564762 25.829524 733.000000 83 44 39
-49.429524 27.151429 731.000000 127 91 93
-49.226667 28.426667 728.000000 192 157 163
-49.226667 29.813333 728.000000 195 161 162
-49.226667 31.200000 728.000000 165 133 136
-49.226667 32.586667 728.000000 139 107 115
-49.159048 33.926667 727.000000 44 17 24
-49.023810 35.214286 725.000000 36 12 8
-49.023810 36.595238 725.000000 168 141 132
-48.888571 37.871429 723.000000 205 169 157
-48.820952 39.194286 722.000000 175 135 122
-48.820952 40.569524 722.000000 153 112 102
-48.820952 41.944762 722.000000 157 118 107
-48.685714 43.200000 720.000000 153 113 106
-48.482857 44.385714 717.000000 162 123 112
-48.415238 45.687619 716.000000 160 121 98
-48.415238 47.051429 716.000000 168 130 108
-48.280000 48.280000 714.000000 175 132 125
-48.280000 49.640000 714.000000 184 136 132
-48.280000 51.000000 714.000000 183 124 112
-48.280000 52.360000 714.000000 153 98 86
-48.280000 53.720000 714.000000 124 87 81
-48.009524 54.771429 710.000000 119 89 89
-48.009524 56.123810 710.000000 134 104 106
-47.874286 57.314286 708.000000 140 112 105
-47.806667 58.580000 707.000000 142 115 92
-47.603810 59.672381 704.000000 149 117 88
-47.603810 61.013333 704.000000 139 101 74
-47.536190 62.265714 703.000000 125 87 68
-47.536190 63.604762 703.000000 141 103 97
-47.400952 64.759048 701.000000 146 108 115
-47.400952 66.094286 701.000000 119 80 99
-47.400952 67.429524 701.000000 77 38 59
-47.333333 68.666667 700.000000 113 77 89
-47.333333 70.000000 700.000000 215 179 183
-47.198095 71.129524 698.000000 216 176 176
-47.198095 72.459048 698.000000 142 100 96
-47.062857 73.577143 696.000000 144 106 97
-46.927619 74.687619 694.000000 158 123 114
-46.927619 76.009524 694.000000 172 140 143
-46.860000 77.220000 693.000000 192 159 168
-46.860000 78.540000 693.000000 185 149 163
-46.724762 79.629524 691.000000 169 133 145
-46.724762 80.945714 691.000000 142 106 112
-46.657143 82.142857 690.000000 123 87 87
-46.521905 83.215238 688.000000 134 93 93
-46.454286 84.402857 687.000000 142 100 98
-46.386667 85.586667 686.000000 153 112 110
-46.386667 86.893333 686.000000 158 119 116
-46.251429 87.942857 684.000000 158 122 116
-46.183810 89.115238 683.000000 156 122 113
-46.183810 90.416190 683.000000 149 121 104
-46.116190 91.582857 682.000000 160 127 112
-46.116190 92.881905 682.000000 169 124 115
-46.116190 94.180952 682.000000 110 63 57
-45.980952 95.200000 680.000000 74 40 28
-45.980952 96.495238 680.000000 124 95 81
-45.913333 97.646667 679.000000 178 145 130
-45.913333 98.940000 679.000000 199 162 144
-45.845714 100.085714 678.000000 207 162 139
-45.845714 101.377143 678.000000 174 131 113
-45.710476 102.365714 676.000000 164 130 129
-45.575238 103.346667 674.000000 168 142 151
-45.575238 104.630476 674.000000 152 132 143
-45.440000 105.600000 672.000000 110 89 96
-45.372381 106.720952 671.000000 106 81 74
-45.304762 107.838095 670.000000 184 151 136
-45.101905 108.625714 667.000000 188 141 124
-45.101905 109.896190 667.000000 147 92 80
-45.101905 111.166667 667.000000 142 93 89
-45.034286 112.268571 666.000000 75 33 34
-44.899048 113.196190 664.000000 83 45 44
-44.899048 114.460952 664.000000 125 91 81
-44.899048 115.725714 664.000000 123 94 64
-44.831429 116.814286 663.000000 91 62 28
-44.763810 117.899048 662.000000 80 49 21
-44.696190 118.980000 661.000000 144 111 88
-44.696190 120.239048 661.000000 151 119 99
-44.560952 121.130476 659.000000 125 91 79
-44.560952 122.385714 659.000000 83 43 41
-44.493333 123.453333 658.000000 50 10 11
-44.425714 124.517143 657.000000 53 19 17
-44.290476 125.385714 655.000000 202 167 161
-44.290476 126.633333 655.000000 222 178 167
-44.290476 127.880952 655.000000 197 153 150
-44.222857 128.931429 654.000000 176 140 154
-44.222857 130.177143 654.000000 148 116 135
-44.155238 131.221905 653.000000 93 67 78
-44.087619 132.262857 652.000000 61 40 47
-43.952381 133.095238 650.000000 58 36 48
-43.952381 134.333333 650.000000 95 72 88
-43.952381 135.571429 650.000000 132 104 123
-43.952381 136.809524 650.000000 148 119 135
-43.952381 138.047619 650.000000 151 125 130
-43.884762 139.071429 649.000000 143 117 120
-43.884762 140.307619 649.000000 141 115 119
-43.817143 141.325714 648.000000 142 114 121
-43.749524 142.340000 647.000000 144 111 124
-43.681905 143.350476 646.000000 148 113 127
-43.681905 144.580952 646.000000 147 110 120
-43.546667 145.360000 644.000000 125 92 101
-43.479048 146.359048 643.000000 105 75 83
-43.411429 147.354286 642.000000 99 70 75
-43.411429 148.577143 642.000000 112 81 79
-43.343810 149.566667 641.000000 135 103 101
-43.276190 150.552381 640.000000 137 109 114
-43.276190 151.771429 640.000000 142 116 122
-43.140952 152.512381 638.000000 145 118 119
-43.073333 153.486667 637.000000 140 111 107
-43.005714 154.457143 636.000000 141 113 104
-43.005714 155.668571 636.000000 139 110 99
-42.938095 156.633333 635.000000 142 111 100
-42.938095 157.842857 635.000000 144 110 101
-42.870476 158.801905 634.000000 143 108 106
-42.735238 159.504762 632.000000 143 108 109
-42.667619 160.454286 631.000000 144 109 108
-42.667619 161.656190 631.000000 143 108 106
-42.600000 162.600000 630.000000 141 107 102
-42.532381 163.540000 629.000000 140 106 99
-42.464762 164.476190 628.000000 143 109 100
-42.397143 165.408571 627.000000 142 108 103
-42.397143 166.602857 627.000000 139 106 111
-42.261905 167.261905 625.000000 138 104 113
-42.261905 168.452381 625.000000 138 104 113
-42.261905 169.642857 625.000000 139 105 112
-42.194286 170.560000 624.000000 140 106 113
-42.126667 171.473333 623.000000 138 106 112
-42.059048 172.382857 622.000000 137 106 114
-42.059048 173.567619 622.000000 138 108 113
-42.059048 174.752381 622.000000 137 106 106
-41.991429 175.654286 621.000000 136 103 106
-41.923810 176.552381 620.000000 140 103 115
-41.923810 177.733333 620.000000 140 105 119
-41.856190 178.625714 619.000000 133 106 109
-41.788571 179.514286 618.000000 130 104 100
-41.653333 180.106667 616.000000 134 102 97
-41.653333 181.280000 616.000000 138 104 97
-41.585714 182.157143 615.000000 136 107 96
-41.518095 183.030476 614.000000 132 105 92
-41.450476 183.900000 613.000000 132 103 89
-41.450476 185.067619 613.000000 138 110 91
-41.450476 186.235238 613.000000 120 94 67
-41.382857 187.097143 612.000000 51 25 2
-50.862857 -27.274286 774.000000 122 86 96
-50.797143 -25.766667 773.000000 164 124 127
-50.665714 -24.231429 771.000000 177 137 145
-50.534286 -22.703810 769.000000 188 147 161
-50.402857 -21.183810 767.000000 190 155 175
-50.402857 -19.722857 767.000000 190 155 175
-50.402857 -18.261905 767.000000 177 144 155
-50.337143 -16.779048 766.000000 142 105 105
-50.337143 -15.320000 766.000000 130 91 80
-50.205714 -13.824762 764.000000 141 101 84
-50.074286 -12.337143 762.000000 153 108 95
-50.008571 -10.871429 761.000000 129 85 76
-49.877143 -9.397143 759.000000 117 78 73
-49.877143 -7.951429 759.000000 123 87 87
-49.745714 -6.488571 757.000000 154 120 130
-49.614286 -5.033333 755.000000 188 156 167
-49.548571 -3.590476 754.000000 180 148 153
-49.548571 -2.154286 754.000000 143 106 110
-49.548571 -0.718095 754.000000 105 59 69
-49.417143 0.716190 752.000000 123 81 85
-49.417143 2.148571 752.000000 135 101 92
-49.417143 3.580952 752.000000 156 122 115
-49.285714 5.000000 750.000000 158 114 123
-49.285714 6.428571 750.000000 122 76 87
-49.220000 7.846667 749.000000 116 74 76
-49.220000 9.273333 749.000000 173 129 127
-49.088571 10.671429 747.000000 183 130 136
-49.088571 12.094286 747.000000 161 107 113
-49.022857 13.499048 746.000000 149 104 103
-48.891429 14.880000 744.000000 154 114 107
-48.694286 16.231429 741.000000 161 123 114
-48.497143 17.571429 738.000000 161 122 109
-48.497143 18.977143 738.000000 149 110 91
-48.365714 20.327619 736.000000 156 111 100
-48.234286 21.670476 734.000000 170 120 126
-48.168571 23.037143 733.000000 138 89 89
-48.037143 24.366667 731.000000 112 68 39
-48.037143 25.759048 731.000000 89 53 19
-47.971429 27.114286 730.000000 102 72 61
-47.840000 28.426667 728.000000 187 157 155
-47.840000 29.813333 728.000000 195 162 157
-47.840000 31.200000 728.000000 155 119 115
-47.774286 32.541905 727.000000 139 104 105
-47.774286 33.926667 727.000000 73 38 42
-47.642857 35.214286 725.000000 52 20 25
-47.642857 36.595238 725.000000 152 116 120
-47.445714 37.819048 722.000000 189 154 148
-47.314286 39.085714 720.000000 187 150 141
-47.314286 40.457143 720.000000 166 127 116
-47.445714 41.944762 722.000000 149 108 100
-47.314286 43.200000 720.000000 153 108 105
-47.117143 44.385714 717.000000 162 118 112
-47.051429 45.687619 716.000000 162 120 102
-47.051429 47.051429 716.000000 167 127 110
-46.920000 48.280000 714.000000 179 139 139
-46.920000 49.640000 714.000000 199 156 163
-46.920000 51.000000 714.000000 209 158 165
-46.920000 52.360000 714.000000 177 127 131
-46.722857 53.494286 711.000000 137 99 93
-46.657143 54.771429 710.000000 132 98 89
-46.525714 55.965714 708.000000 123 89 80
-46.460000 57.233333 707.000000 142 107 97
-46.262857 58.331429 704.000000 147 113 98
-46.262857 59.672381 704.000000 148 112 93
-46.262857 61.013333 704.000000 145 103 85
-46.197143 62.265714 703.000000 138 96 76
-46.197143 63.604762 703.000000 140 104 84
-46.197143 64.943810 703.000000 147 110 96
-46.065714 66.094286 701.000000 135 94 94
-46.000000 67.333333 700.000000 81 40 46
-46.000000 68.666667 700.000000 87 50 57
-45.868571 69.800000 698.000000 207 171 171
-45.868571 71.129524 698.000000 218 185 168
-45.868571 72.459048 698.000000 174 139 119
-45.737143 73.577143 696.000000 157 117 112
-45.605714 74.687619 694.000000 169 130 135
-45.540000 75.900000 693.000000 177 145 160
-45.540000 77.220000 693.000000 185 154 169
-45.540000 78.540000 693.000000 172 143 147
-45.408571 79.629524 691.000000 162 131 125
-45.342857 80.828571 690.000000 146 107 96
-45.211429 81.904762 688.000000 132 88 79
-45.145714 83.094286 687.000000 130 90 85
-45.080000 84.280000 686.000000 147 106 106
-45.080000 85.586667 686.000000 158 117 118
-44.948571 86.640000 684.000000 162 121 121
-44.948571 87.942857 684.000000 155 117 109
-44.882857 89.115238 683.000000 155 122 111
-44.882857 90.416190 683.000000 154 123 112
-44.817143 91.582857 682.000000 161 126 117
-44.817143 92.881905 682.000000 167 120 120
-44.685714 93.904762 680.000000 118 72 74
-44.685714 95.200000 680.000000 84 48 48
-44.685714 96.495238 680.000000 88 59 53
-44.620000 97.646667 679.000000 133 106 89
-44.554286 98.794286 678.000000 189 161 139
-44.554286 100.085714 678.000000 208 169 152
-44.554286 101.377143 678.000000 175 135 126
-44.422857 102.365714 676.000000 162 132 134
-44.357143 103.500000 675.000000 161 136 140
-44.291429 104.630476 674.000000 140 118 113
-44.094286 105.442857 671.000000 85 63 52
-44.094286 106.720952 671.000000 82 56 41
-44.028571 107.838095 670.000000 184 149 130
-43.831429 108.625714 667.000000 217 169 147
-43.831429 109.896190 667.000000 169 116 95
-43.765714 111.000000 666.000000 133 86 71
-43.634286 111.931429 664.000000 77 39 26
-43.634286 113.196190 664.000000 74 45 27
-43.634286 114.460952 664.000000 111 86 64
-43.568571 115.551429 663.000000 117 96 67
-43.568571 116.814286 663.000000 79 54 24
-43.502857 117.899048 662.000000 67 36 8
-43.437143 118.980000 661.000000 153 116 94
-43.437143 120.239048 661.000000 165 125 108
-43.305714 121.130476 659.000000 149 106 92
-43.305714 122.385714 659.000000 112 69 52
-43.240000 123.453333 658.000000 61 23 4
-43.174286 124.517143 657.000000 51 19 0
-43.042857 125.385714 655.000000 189 160 146
-43.042857 126.633333 655.000000 209 179 181
-43.042857 127.880952 655.000000 190 158 171
-42.977143 128.931429 654.000000 168 136 157
-42.977143 130.177143 654.000000 119 91 103
-42.911429 131.221905 653.000000 76 52 40
-42.845714 132.262857 652.000000 78 52 39
-42.714286 133.095238 650.000000 80 51 56
-42.714286 134.333333 650.000000 117 89 103
-42.714286 135.571429 650.000000 148 120 130
-42.648571 136.599048 649.000000 144 116 121
-42.648571 137.835238 649.000000 144 117 120
-42.648571 139.071429 649.000000 141 114 117
-42.582857 140.091429 648.000000 139 108 116
-42.582857 141.325714 648.000000 148 117 125
-42.517143 142.340000 647.000000 144 114 118
-42.451429 143.350476 646.000000 137 107 109
-42.320000 144.133333 644.000000 135 104 106
-42.320000 145.360000 644.000000 119 88 93
-42.188571 146.131429 642.000000 106 75 83
-42.122857 147.124762 641.000000 111 81 93
-42.057143 148.114286 640.000000 124 91 108
-42.057143 149.333333 640.000000 143 110 125
-42.057143 150.552381 640.000000 146 116 121
-41.925714 151.297143 638.000000 141 112 111
-41.925714 152.512381 638.000000 142 110 105
-41.860000 153.486667 637.000000 140 109 101
-41.794286 154.457143 636.000000 141 110 102
-41.728571 155.423810 635.000000 142 111 103
-41.728571 156.633333 635.000000 143 109 100
-41.662857 157.594286 634.000000 144 110 103
-41.531429 158.300952 632.000000 145 110 109
-41.465714 159.252381 631.000000 144 108 112
-41.465714 160.454286 631.000000 144 108 112
-41.400000 161.400000 630.000000 143 107 111
-41.334286 162.341905 629.000000 141 106 107
-41.268571 163.280000 628.000000 140 105 103
-41.268571 164.476190 628.000000 140 108 103
-41.202857 165.408571 627.000000 141 109 106
-41.202857 166.602857 627.000000 140 107 110
-41.071429 167.261905 625.000000 139 105 112
-41.071429 168.452381 625.000000 139 105 114
-41.005714 169.371429 624.000000 140 106 115
-41.005714 170.560000 624.000000 140 106 113
-40.874286 171.198095 622.000000 138 104 111
-40.874286 172.382857 622.000000 137 104 115
-40.808571 173.288571 621.000000 139 107 115
-40.808571 174.471429 621.000000 138 105 110
-40.742857 175.371429 620.000000 136 103 106
-40.677143 176.267619 619.000000 136 102 109
-40.677143 177.446667 619.000000 138 106 111
-40.611429 178.337143 618.000000 134 107 106
-40.611429 179.514286 618.000000 132 106 102
-40.480000 180.106667 616.000000 136 104 99
-40.480000 181.280000 616.000000 138 104 97
-40.414286 182.157143 615.000000 132 103 92
-40.348571 183.030476 614.000000 127 100 89
-40.282857 183.900000 613.000000 127 103 93
-40.282857 185.067619 613.000000 138 111 96
-40.217143 185.931429 612.000000 131 101 69
-40.217143 187.097143 612.000000 72 41 10
-49.516190 -30.300952 776.000000 136 102 121
-49.388571 -28.748571 774.000000 176 137 158
-49.388571 -27.274286 774.000000 182 142 153
-49.324762 -25.766667 773.000000 202 160 170
-49.197143 -24.231429 771.000000 200 159 177
-49.069524 -22.703810 769.000000 185 145 169
-48.941905 -21.183810 767.000000 154 117 146
-48.941905 -19.722857 767.000000 146 112 134
-48.878095 -18.238095 766.000000 154 120 127
-48.878095 -16.779048 766.000000 154 118 112
-48.878095 -15.320000 766.000000 152 114 96
-48.622857 -13.788571 762.000000 162 120 102
-48.622857 -12.337143 762.000000 178 134 124
-48.559048 -10.871429 761.000000 185 141 138
-48.431429 -9.397143 759.000000 167 126 126
-48.431429 -7.951429 759.000000 115 79 83
-48.303810 -6.488571 757.000000 106 73 84
-48.176190 -5.033333 755.000000 138 106 114
-48.112381 -3.590476 754.000000 127 95 96
-48.112381 -2.154286 754.000000 132 96 94
-47.984762 -0.716190 752.000000 134 91 93
-47.984762 0.716190 752.000000 134 92 90
-47.857143 2.142857 750.000000 139 102 86
-47.857143 3.571429 750.000000 166 130 113
-47.857143 5.000000 750.000000 160 113 115
-47.793333 6.420000 749.000000 98 48 57
-47.665714 7.825714 747.000000 88 42 45
-47.665714 9.248571 747.000000 166 116 120
-47.601905 10.657143 746.000000 188 135 143
-47.601905 12.078095 746.000000 176 124 130
-47.474286 13.462857 744.000000 154 111 112
-47.346667 14.840000 742.000000 148 108 103
-47.155238 16.187619 739.000000 154 114 109
-47.091429 17.571429 738.000000 154 113 105
-47.091429 18.977143 738.000000 159 119 104
-46.836190 20.272381 734.000000 174 131 123
-46.772381 21.640952 733.000000 190 140 149
-46.644762 22.974286 731.000000 211 162 165
-46.644762 24.366667 731.000000 203 162 132
-46.580952 25.723810 730.000000 146 111 76
-46.453333 27.040000 728.000000 124 95 81
-46.453333 28.426667 728.000000 149 119 113
-46.389524 29.772381 727.000000 148 113 104
-46.389524 31.157143 727.000000 151 111 104
-46.389524 32.541905 727.000000 153 113 108
-46.261905 33.833333 725.000000 135 94 94
-46.261905 35.214286 725.000000 90 50 58
-46.070476 36.443810 722.000000 105 68 75
-46.070476 37.819048 722.000000 156 124 121
-45.942857 39.085714 720.000000 211 178 169
-45.942857 40.457143 720.000000 199 161 150
-45.879048 41.770476 719.000000 143 100 88
-45.879048 43.140000 719.000000 147 99 89
-45.751429 44.385714 717.000000 166 121 110
-45.687619 45.687619 716.000000 170 127 113
-45.560000 46.920000 714.000000 186 148 139
-45.560000 48.280000 714.000000 197 161 163
-45.560000 49.640000 714.000000 208 170 181
-45.560000 51.000000 714.000000 198 158 167
-45.560000 52.360000 714.000000 173 132 136
-45.304762 53.419048 710.000000 151 113 105
-45.177143 54.617143 708.000000 146 107 94
-45.113333 55.886667 707.000000 147 106 96
-45.049524 57.152381 706.000000 156 115 105
-44.921905 58.331429 704.000000 161 124 110
-44.858095 59.587619 703.000000 166 130 115
-44.858095 60.926667 703.000000 162 122 105
-44.858095 62.265714 703.000000 162 123 104
-44.858095 63.604762 703.000000 165 127 108
-44.730476 64.759048 701.000000 172 135 118
-44.730476 66.094286 701.000000 159 117 111
-44.539048 67.140952 698.000000 86 44 45
-44.539048 68.470476 698.000000 82 37 40
-44.539048 69.800000 698.000000 160 119 117
-44.539048 71.129524 698.000000 215 182 163
-44.475238 72.355238 697.000000 210 179 161
-44.283810 73.365714 694.000000 200 165 161
-44.220000 74.580000 693.000000 193 158 165
-44.220000 75.900000 693.000000 174 144 156
-44.092381 76.997143 691.000000 114 86 100
-44.092381 78.313333 691.000000 101 74 83
-44.092381 79.629524 691.000000 163 131 132
-44.028571 80.828571 690.000000 188 146 130
-43.900952 81.904762 688.000000 175 130 110
-43.837143 83.094286 687.000000 155 111 102
-43.773333 84.280000 686.000000 150 108 104
-43.773333 85.586667 686.000000 147 106 107
-43.645714 86.640000 684.000000 160 119 119
-43.581905 87.814286 683.000000 153 116 104
-43.581905 89.115238 683.000000 155 121 106
-43.581905 90.416190 683.000000 162 127 115
-43.518095 91.582857 682.000000 169 132 123
-43.390476 92.609524 680.000000 171 126 125
-43.390476 93.904762 680.000000 144 98 101
-43.326667 95.060000 679.000000 83 44 45
-43.326667 96.353333 679.000000 46 16 6
-43.135238 97.215238 676.000000 60 38 14
-43.135238 98.502857 676.000000 184 160 136
-43.135238 99.790476 676.000000 197 163 153
-43.135238 101.078095 676.000000 157 118 117
-43.071429 102.214286 675.000000 130 99 101
-43.007619 103.346667 674.000000 116 87 89
-42.880000 104.320000 672.000000 103 75 71
-42.816190 105.442857 671.000000 46 19 10
-42.816190 106.720952 671.000000 69 43 30
-42.752381 107.838095 670.000000 185 152 137
-42.560952 108.625714 667.000000 214 167 151
-42.560952 109.896190 667.000000 189 138 120
-42.497143 111.000000 666.000000 152 103 89
-42.369524 111.931429 664.000000 65 23 9
-42.369524 113.196190 664.000000 51 19 0
-42.369524 114.460952 664.000000 71 45 22
-42.305714 115.551429 663.000000 82 57 37
-42.305714 116.814286 663.000000 69 42 25
-42.241905 117.899048 662.000000 74 43 23
-42.178095 118.980000 661.000000 156 119 103
-42.178095 120.239048 661.000000 177 134 124
-42.050476 121.130476 659.000000 177 132 125
-42.050476 122.385714 659.000000 175 131 117
-41.986667 123.453333 658.000000 123 86 67
-41.922857 124.517143 657.000000 114 84 58
-41.922857 125.768571 657.000000 118 96 75
-41.795238 126.633333 655.000000 121 102 96
-41.795238 127.880952 655.000000 113 92 99
-41.731429 128.931429 654.000000 67 36 52
-41.731429 130.177143 654.000000 65 34 42
-41.667619 131.221905 653.000000 93 66 47
-41.603810 132.262857 652.000000 140 112 91
-41.476190 133.095238 650.000000 158 127 127
-41.476190 134.333333 650.000000 154 122 131
-41.476190 135.571429 650.000000 152 122 124
-41.412381 136.599048 649.000000 151 122 121
-41.412381 137.835238 649.000000 152 122 124
-41.412381 139.071429 649.000000 152 120 125
-41.348571 140.091429 648.000000 151 119 127
-41.348571 141.325714 648.000000 150 118 126
-41.284762 142.340000 647.000000 130 100 104
-41.220952 143.350476 646.000000 100 74 77
-41.093333 144.133333 644.000000 99 73 76
-40.965714 144.908571 642.000000 119 90 95
-40.901905 145.903810 641.000000 134 103 111
-40.838095 146.895238 640.000000 144 112 127
-40.838095 148.114286 640.000000 143 110 134
-40.838095 149.333333 640.000000 144 111 133
-40.710476 150.081905 638.000000 143 111 117
-40.710476 151.297143 638.000000 140 108 105
-40.710476 152.512381 638.000000 144 110 105
-40.646667 153.486667 637.000000 145 111 106
-40.582857 154.457143 636.000000 143 108 107
-40.519048 155.423810 635.000000 145 110 108
-40.519048 156.633333 635.000000 143 109 102
-40.455238 157.594286 634.000000 144 110 105
-40.327619 158.300952 632.000000 144 108 112
-40.263810 159.252381 631.000000 143 107 114
-40.200000 160.200000 630.000000 144 108 115
-40.200000 161.400000 630.000000 143 107 113
-40.136190 162.341905 629.000000 143 107 111
-40.072381 163.280000 628.000000 142 107 108
-40.008571 164.214286 627.000000 140 108 105
-40.008571 165.408571 627.000000 142 110 107
-40.008571 166.602857 627.000000 142 110 107
-39.880952 167.261905 625.000000 141 108 109
-39.880952 168.452381 625.000000 140 106 113
-39.817143 169.371429 624.000000 140 106 115
-39.817143 170.560000 624.000000 140 106 113
-39.689524 171.198095 622.000000 138 104 111
-39.689524 172.382857 622.000000 136 102 113
-39.625714 173.288571 621.000000 140 103 113
-39.625714 174.471429 621.000000 138 105 110
-39.561905 175.371429 620.000000 136 103 106
-39.498095 176.267619 619.000000 135 104 104
-39.498095 177.446667 619.000000 136 107 106
-39.434286 178.337143 618.000000 135 108 107
-39.306667 178.933333 616.000000 137 108 107
-39.306667 180.106667 616.000000 136 106 102
-39.242857 180.985714 615.000000 134 102 97
-39.179048 181.860952 614.000000 132 102 94
-39.115238 182.732381 613.000000 132 104 97
-39.115238 183.900000 613.000000 129 104 100
-39.051429 184.765714 612.000000 131 103 94
-39.051429 185.931429 612.000000 137 105 77
-39.051429 187.097143 612.000000 115 80 52
-38.987619 187.955238 611.000000 75 39 27
-48.038095 -31.779048 776.000000 119 87 88
-48.038095 -30.300952 776.000000 151 115 119
-47.914286 -28.748571 774.000000 183 145 156
-47.914286 -27.274286 774.000000 190 153 171
-47.728571 -25.700000 771.000000 184 149 171
-47.728571 -24.231429 771.000000 193 158 178
-47.604762 -22.703810 769.000000 173 140 159
-47.480952 -21.183810 767.000000 147 113 133
-47.480952 -19.722857 767.000000 142 107 123
-47.419048 -18.238095 766.000000 141 103 111
-47.419048 -16.779048 766.000000 153 112 113
-47.419048 -15.320000 766.000000 160 118 112
-47.171429 -13.788571 762.000000 165 123 117
-47.109524 -12.320952 761.000000 171 131 132
-46.985714 -10.842857 759.000000 185 145 153
-46.985714 -9.397143 759.000000 177 139 150
-46.861905 -7.930476 757.000000 116 79 86
-46.861905 -6.488571 757.000000 89 54 52
-46.738095 -5.033333 755.000000 130 94 88
-46.676190 -3.590476 754.000000 133 97 93
-46.676190 -2.154286 754.000000 144 105 104
-46.552381 -0.716190 752.000000 148 109 106
-46.552381 0.716190 752.000000 145 107 99
-46.428571 2.142857 750.000000 152 112 95
-46.428571 3.571429 750.000000 163 120 108
-46.366667 4.993333 749.000000 173 123 127
-46.366667 6.420000 749.000000 115 63 76
-46.242857 7.825714 747.000000 73 20 36
-46.242857 9.248571 747.000000 143 90 103
-46.180952 10.657143 746.000000 183 131 143
-46.180952 12.078095 746.000000 176 130 133
-45.933333 13.426667 742.000000 159 119 114
-45.871429 14.820000 741.000000 140 102 94
-45.747619 16.187619 739.000000 150 103 103
-45.685714 17.571429 738.000000 166 117 115
-45.561905 18.925714 736.000000 164 121 107
-45.438095 20.272381 734.000000 173 130 120
-45.376190 21.640952 733.000000 190 143 149
-45.190476 22.942857 730.000000 202 157 164
-45.190476 24.333333 730.000000 202 163 156
-45.066667 25.653333 728.000000 153 118 106
-45.066667 27.040000 728.000000 136 102 95
-45.066667 28.426667 728.000000 149 113 109
-45.004762 29.772381 727.000000 152 108 102
-45.004762 31.157143 727.000000 152 106 100
-44.880952 32.452381 725.000000 160 115 106
-44.880952 33.833333 725.000000 147 101 96
-44.757143 35.117143 723.000000 107 65 66
-44.695238 36.443810 722.000000 98 59 62
-44.695238 37.819048 722.000000 124 94 94
-44.571429 39.085714 720.000000 201 170 165
-44.571429 40.457143 720.000000 209 166 157
-44.509524 41.770476 719.000000 152 104 86
-44.385714 43.020000 717.000000 144 98 67
-44.385714 44.385714 717.000000 166 121 94
-44.323810 45.687619 716.000000 179 138 132
-44.200000 46.920000 714.000000 193 153 161
