ply
format ascii 1.0
element vertex 1103
property float x
property float y
property float z
property uchar red
property uchar green
property uchar blue
element face 0
property list uchar int vertex_index
end_header
82.164762 -102.536190 713.000000 92 97 116
82.164762 -101.178095 713.000000 91 99 112
81.934286 -99.540000 711.000000 99 107 118
81.934286 -98.185714 711.000000 93 101 114
82.164762 -97.103810 713.000000 92 101 110
82.164762 -95.745714 713.000000 83 93 92
82.164762 -94.387619 713.000000 77 86 81
82.280000 -93.160000 714.000000 69 73 74
82.280000 -91.800000 714.000000 78 77 85
82.510476 -90.693333 716.000000 55 51 66
82.510476 -89.329524 716.000000 50 40 64
82.510476 -87.965714 716.000000 47 36 66
82.510476 -86.601905 716.000000 40 30 64
82.510476 -85.238095 716.000000 40 39 73
82.510476 -83.874286 716.000000 40 40 74
82.510476 -82.510476 716.000000 32 31 62
82.510476 -81.146667 716.000000 46 43 72
82.510476 -79.782857 716.000000 73 69 96
82.510476 -78.419048 716.000000 136 132 157
82.510476 -77.055238 716.000000 149 144 167
82.510476 -75.691429 716.000000 144 139 162
82.510476 -74.327619 716.000000 143 139 166
82.510476 -72.963810 716.000000 146 142 169
82.510476 -71.600000 716.000000 142 140 164
82.510476 -70.236190 716.000000 137 135 159
82.510476 -68.872381 716.000000 125 122 150
82.510476 -67.508571 716.000000 69 66 93
82.510476 -66.144762 716.000000 73 71 95
82.510476 -64.780952 716.000000 137 133 156
82.510476 -63.417143 716.000000 150 145 167
82.625714 -62.140000 717.000000 147 144 165
82.625714 -60.774286 717.000000 145 143 165
82.625714 -59.408571 717.000000 147 143 168
82.625714 -58.042857 717.000000 146 140 166
82.625714 -56.677143 717.000000 143 137 163
82.856190 -55.465714 719.000000 142 138 161
82.856190 -54.096190 719.000000 142 140 161
82.856190 -52.726667 719.000000 144 142 163
82.856190 -51.357143 719.000000 145 141 164
82.856190 -49.987619 719.000000 145 139 165
82.971429 -48.685714 720.000000 133 129 156
82.971429 -47.314286 720.000000 118 118 145
82.971429 -45.942857 720.000000 81 81 105
82.971429 -44.571429 720.000000 94 92 114
82.971429 -43.200000 720.000000 148 145 166
82.971429 -41.828571 720.000000 150 145 167
82.971429 -40.457143 720.000000 145 140 160
82.971429 -39.085714 720.000000 142 137 159
82.971429 -37.714286 720.000000 142 137 159
82.971429 -36.342857 720.000000 141 138 159
82.971429 -34.971429 720.000000 143 140 161
82.971429 -33.600000 720.000000 143 139 162
83.201905 -32.318095 722.000000 141 137 160
83.201905 -30.942857 722.000000 141 137 160
83.201905 -29.567619 722.000000 144 140 163
83.201905 -28.192381 722.000000 143 139 162
83.201905 -26.817143 722.000000 142 138 161
83.201905 -25.441905 722.000000 143 138 160
83.201905 -24.066667 722.000000 143 138 160
83.201905 -22.691429 722.000000 141 136 158
83.201905 -21.316190 722.000000 140 135 157
83.201905 -19.940952 722.000000 139 136 157
83.317143 -18.591429 723.000000 141 137 160
83.547619 -17.261905 725.000000 140 136 163
83.547619 -15.880952 725.000000 141 136 166
83.547619 -14.500000 725.000000 141 137 164
83.547619 -13.119048 725.000000 141 137 162
83.547619 -11.738095 725.000000 142 139 160
83.547619 -10.357143 725.000000 136 133 152
83.547619 -8.976190 725.000000 132 129 148
83.547619 -7.595238 725.000000 121 118 140
83.547619 -6.214286 725.000000 116 111 142
83.547619 -4.833333 725.000000 116 110 145
83.778095 -3.461905 727.000000 125 121 155
83.778095 -2.077143 727.000000 137 134 165
83.778095 -0.692381 727.000000 141 139 163
83.778095 0.692381 727.000000 145 143 165
83.778095 2.077143 727.000000 140 138 162
83.778095 3.461905 727.000000 140 136 161
83.778095 4.846667 727.000000 141 135 163
83.778095 6.231429 727.000000 141 135 163
83.778095 7.616190 727.000000 144 135 166
83.778095 9.000952 727.000000 144 135 166
83.778095 10.385714 727.000000 145 135 169
83.778095 11.770476 727.000000 144 137 170
83.778095 13.155238 727.000000 142 135 168
83.778095 14.540000 727.000000 140 133 164
83.893333 15.946667 728.000000 138 133 163
83.893333 17.333333 728.000000 138 133 163
83.893333 18.720000 728.000000 140 135 165
83.893333 20.106667 728.000000 140 135 165
83.893333 21.493333 728.000000 141 134 165
83.893333 22.880000 728.000000 141 135 163
84.123810 24.333333 730.000000 139 134 157
84.123810 25.723810 730.000000 137 132 155
84.123810 27.114286 730.000000 137 132 155
84.123810 28.504762 730.000000 139 134 157
84.123810 29.895238 730.000000 140 135 157
84.239048 31.328571 731.000000 139 134 156
84.239048 32.720952 731.000000 139 134 156
84.239048 34.113333 731.000000 139 134 156
84.239048 35.505714 731.000000 139 134 157
84.239048 36.898095 731.000000 137 132 155
84.239048 38.290476 731.000000 137 132 155
84.239048 39.682857 731.000000 138 133 156
84.239048 41.075238 731.000000 137 132 155
84.239048 42.467619 731.000000 135 129 155
84.239048 43.860000 731.000000 135 129 155
84.469524 45.376190 733.000000 138 132 158
84.469524 46.772381 733.000000 139 132 163
84.469524 48.168571 733.000000 138 131 162
84.469524 49.564762 733.000000 136 129 160
84.469524 50.960952 733.000000 136 129 160
84.469524 52.357143 733.000000 137 133 160
84.469524 53.753333 733.000000 137 133 160
84.469524 55.149524 733.000000 136 132 157
84.469524 56.545714 733.000000 137 133 156
84.469524 57.941905 733.000000 135 132 153
84.469524 59.338095 733.000000 135 131 154
84.469524 60.734286 733.000000 135 131 156
84.584762 62.215238 734.000000 134 130 157
84.584762 63.613333 734.000000 135 127 159
84.584762 65.011429 734.000000 135 127 161
84.584762 66.409524 734.000000 136 127 165
84.815238 67.992381 736.000000 137 130 164
84.815238 69.394286 736.000000 136 129 160
84.815238 70.796190 736.000000 135 129 157
85.045714 72.394286 738.000000 135 129 157
85.045714 73.800000 738.000000 134 127 156
85.045714 75.205714 738.000000 134 126 158
85.045714 76.611429 738.000000 134 126 158
85.045714 78.017143 738.000000 133 126 155
85.045714 79.422857 738.000000 132 125 154
85.045714 80.828571 738.000000 135 129 155
85.045714 82.234286 738.000000 135 129 155
85.045714 83.640000 738.000000 134 127 154
85.045714 85.045714 738.000000 135 129 155
85.045714 86.451429 738.000000 136 130 156
85.045714 87.857143 738.000000 135 129 157
85.045714 89.262857 738.000000 133 126 155
85.160952 90.791429 739.000000 131 123 155
85.160952 92.199048 739.000000 132 125 154
85.160952 93.606667 739.000000 132 125 154
85.160952 95.014286 739.000000 132 125 154
85.160952 96.421905 739.000000 132 125 154
85.160952 97.829524 739.000000 133 126 155
85.160952 99.237143 739.000000 132 125 154
85.160952 100.644762 739.000000 131 124 151
85.160952 102.052381 739.000000 130 123 150
85.160952 103.460000 739.000000 131 124 151
85.391429 105.151429 741.000000 130 123 150
85.391429 106.562857 741.000000 129 122 149
85.391429 107.974286 741.000000 129 122 149
85.506667 109.533333 742.000000 129 122 149
85.506667 110.946667 742.000000 130 123 150
85.506667 112.360000 742.000000 130 123 150
85.737143 114.080000 744.000000 129 122 149
85.737143 115.497143 744.000000 130 123 150
85.737143 116.914286 744.000000 129 122 149
85.737143 118.331429 744.000000 127 121 148
85.737143 119.748571 744.000000 126 120 147
85.737143 121.165714 744.000000 125 119 146
85.737143 122.582857 744.000000 124 118 145
85.737143 124.000000 744.000000 124 119 143
85.737143 125.417143 744.000000 124 119 143
85.737143 126.834286 744.000000 126 121 145
85.737143 128.251429 744.000000 125 120 144
85.967619 130.017143 746.000000 125 120 144
85.967619 131.438095 746.000000 125 119 146
85.967619 132.859048 746.000000 127 118 148
85.967619 134.280000 746.000000 127 118 150
85.967619 135.700952 746.000000 129 118 153
86.082857 137.305714 747.000000 127 117 153
86.082857 138.728571 747.000000 127 117 155
86.082857 140.151429 747.000000 126 116 154
86.082857 141.574286 747.000000 125 115 151
86.082857 142.997143 747.000000 124 114 149
86.082857 144.420000 747.000000 122 115 147
86.082857 145.842857 747.000000 123 117 146
86.082857 147.265714 747.000000 124 118 145
86.082857 148.688571 747.000000 124 118 145
86.313333 150.513333 749.000000 124 118 147
86.313333 151.940000 749.000000 122 116 145
86.313333 153.366667 749.000000 123 117 146
86.313333 154.793333 749.000000 124 118 147
86.313333 156.220000 749.000000 127 118 148
86.313333 157.646667 749.000000 124 115 145
86.313333 159.073333 749.000000 119 110 138
86.428571 160.714286 750.000000 68 63 86
86.428571 162.142857 750.000000 38 35 52
86.428571 163.571429 750.000000 37 34 51
86.428571 165.000000 750.000000 52 49 68
86.659048 166.872381 752.000000 94 91 112
86.659048 168.304762 752.000000 105 100 120
86.659048 169.737143 752.000000 100 95 117
86.659048 171.169524 752.000000 104 98 126
86.659048 172.601905 752.000000 106 99 131
86.659048 174.034286 752.000000 110 100 135
86.659048 175.466667 752.000000 108 98 133
86.659048 176.899048 752.000000 110 101 131
86.659048 178.331429 752.000000 113 104 134
86.659048 179.763810 752.000000 114 105 135
86.659048 181.196190 752.000000 110 101 131
86.659048 182.628571 752.000000 111 103 127
86.659048 184.060952 752.000000 114 106 131
86.659048 185.493333 752.000000 114 107 141
86.659048 186.925714 752.000000 114 104 142
86.889524 188.859048 754.000000 113 101 142
86.889524 190.295238 754.000000 114 102 139
86.889524 191.731429 754.000000 117 103 137
86.889524 193.167619 754.000000 121 108 139
86.889524 194.603810 754.000000 114 101 132
86.889524 196.040000 754.000000 90 80 107
87.004762 197.738095 755.000000 54 45 64
87.004762 199.176190 755.000000 25 16 35
87.004762 200.614286 755.000000 32 22 46
87.235238 202.587619 757.000000 97 87 112
87.235238 204.029524 757.000000 112 102 126
87.235238 205.471429 757.000000 121 111 136
87.235238 206.913333 757.000000 121 111 139
87.235238 208.355238 757.000000 120 109 140
87.235238 209.797143 757.000000 118 108 136
87.235238 211.239048 757.000000 118 108 134
87.235238 212.680952 757.000000 120 107 134
87.235238 214.122857 757.000000 119 106 135
87.465714 216.134286 759.000000 118 103 133
87.465714 217.580000 759.000000 119 104 134
87.465714 219.025714 759.000000 120 105 135
87.465714 220.471429 759.000000 120 105 135
87.465714 221.917143 759.000000 119 106 135
87.465714 223.362857 759.000000 118 105 134
87.465714 224.808571 759.000000 118 105 132
87.465714 226.254286 759.000000 118 105 132
87.465714 227.700000 759.000000 119 105 132
87.465714 229.145714 759.000000 119 105 131
87.696190 231.199048 761.000000 121 105 132
87.696190 232.648571 761.000000 121 105 133
87.696190 234.098095 761.000000 119 105 132
87.696190 235.547619 761.000000 118 104 131
87.811429 237.308571 762.000000 117 103 129
87.811429 238.760000 762.000000 115 101 126
87.811429 240.211429 762.000000 116 100 126
88.041905 242.297143 764.000000 119 104 127
88.041905 243.752381 764.000000 112 95 113
88.272381 245.849524 766.000000 69 49 58
88.272381 247.308571 766.000000 67 47 46
83.522857 -132.414286 713.000000 180 172 187
83.522857 -131.056190 713.000000 181 171 196
83.171429 -129.152381 710.000000 154 145 174
83.171429 -127.800000 710.000000 146 142 169
83.171429 -126.447619 710.000000 153 149 176
83.171429 -125.095238 710.000000 151 146 176
83.171429 -123.742857 710.000000 149 144 174
83.171429 -122.390476 710.000000 147 142 172
83.171429 -121.038095 710.000000 151 147 174
83.171429 -119.685714 710.000000 151 149 173
83.171429 -118.333333 710.000000 134 136 161
83.288571 -117.145714 711.000000 118 122 152
83.522857 -116.117143 713.000000 32 37 67
83.522857 -114.759048 713.000000 15 20 49
83.522857 -113.400952 713.000000 28 34 60
83.522857 -112.042857 713.000000 25 32 51
83.522857 -110.684762 713.000000 37 42 64
83.288571 -109.020000 711.000000 60 60 96
83.288571 -107.665714 711.000000 83 80 123
83.288571 -106.311429 711.000000 115 108 153
83.288571 -104.957143 711.000000 125 118 160
83.522857 -103.894286 713.000000 130 125 159
83.522857 -102.536190 713.000000 132 132 160
83.522857 -101.178095 713.000000 131 132 160
83.522857 -99.820000 713.000000 125 126 155
83.522857 -98.461905 713.000000 126 129 154
83.522857 -97.103810 713.000000 130 131 151
83.640000 -95.880000 714.000000 130 130 138
83.640000 -94.520000 714.000000 131 130 136
83.640000 -93.160000 714.000000 112 109 126
83.640000 -91.800000 714.000000 108 103 125
83.874286 -90.693333 716.000000 103 96 114
83.874286 -89.329524 716.000000 83 75 86
83.640000 -87.720000 714.000000 64 55 56
83.640000 -86.360000 714.000000 45 38 45
83.640000 -85.000000 714.000000 36 34 58
83.640000 -83.640000 714.000000 34 33 65
83.640000 -82.280000 714.000000 30 29 60
83.874286 -81.146667 716.000000 48 45 74
83.991429 -79.894286 717.000000 75 70 100
83.991429 -78.528571 717.000000 136 132 159
83.991429 -77.162857 717.000000 145 142 163
83.991429 -75.797143 717.000000 141 138 159
83.991429 -74.431429 717.000000 145 141 168
83.991429 -73.065714 717.000000 148 143 173
83.991429 -71.700000 717.000000 145 143 167
83.991429 -70.334286 717.000000 137 135 157
83.991429 -68.968571 717.000000 121 117 143
83.874286 -67.508571 716.000000 74 70 95
83.874286 -66.144762 716.000000 82 78 101
83.874286 -64.780952 716.000000 144 140 165
83.874286 -63.417143 716.000000 150 144 170
83.874286 -62.053333 716.000000 144 140 167
83.991429 -60.774286 717.000000 143 140 169
83.991429 -59.408571 717.000000 145 142 171
83.991429 -58.042857 717.000000 147 140 173
83.991429 -56.677143 717.000000 145 138 169
83.991429 -55.311429 717.000000 143 139 166
84.225714 -54.096190 719.000000 143 141 165
84.225714 -52.726667 719.000000 142 140 162
84.225714 -51.357143 719.000000 148 144 167
84.342857 -50.057143 720.000000 148 142 168
84.342857 -48.685714 720.000000 134 127 154
84.342857 -47.314286 720.000000 119 117 142
84.342857 -45.942857 720.000000 84 82 104
84.342857 -44.571429 720.000000 97 94 113
84.342857 -43.200000 720.000000 149 144 164
84.342857 -41.828571 720.000000 150 145 165
84.342857 -40.457143 720.000000 145 140 162
84.342857 -39.085714 720.000000 143 138 160
84.342857 -37.714286 720.000000 143 138 160
84.342857 -36.342857 720.000000 142 138 161
84.342857 -34.971429 720.000000 143 139 162
84.342857 -33.600000 720.000000 143 139 162
84.577143 -32.318095 722.000000 141 137 160
84.577143 -30.942857 722.000000 143 139 164
84.577143 -29.567619 722.000000 146 142 167
84.577143 -28.192381 722.000000 146 142 165
84.577143 -26.817143 722.000000 144 140 163
84.577143 -25.441905 722.000000 144 139 162
84.577143 -24.066667 722.000000 144 139 162
84.577143 -22.691429 722.000000 141 136 159
84.577143 -21.316190 722.000000 140 135 158
84.694286 -19.968571 723.000000 138 134 157
84.694286 -18.591429 723.000000 142 138 165
84.928571 -17.261905 725.000000 142 137 169
84.928571 -15.880952 725.000000 142 136 170
84.928571 -14.500000 725.000000 141 136 168
84.928571 -13.119048 725.000000 140 136 163
84.928571 -11.738095 725.000000 143 138 160
84.928571 -10.357143 725.000000 145 141 158
84.928571 -8.976190 725.000000 141 138 155
84.928571 -7.595238 725.000000 141 138 159
84.928571 -6.214286 725.000000 137 133 158
85.162857 -4.846667 727.000000 134 130 157
85.162857 -3.461905 727.000000 140 135 165
85.162857 -2.077143 727.000000 142 138 165
85.162857 -0.692381 727.000000 138 134 157
85.162857 0.692381 727.000000 139 136 157
85.162857 2.077143 727.000000 140 137 158
85.162857 3.461905 727.000000 141 137 160
85.162857 4.846667 727.000000 143 137 163
85.162857 6.231429 727.000000 142 136 162
85.162857 7.616190 727.000000 143 134 161
85.162857 9.000952 727.000000 143 134 161
85.162857 10.385714 727.000000 142 136 162
85.162857 11.770476 727.000000 143 137 163
85.162857 13.155238 727.000000 142 136 162
85.162857 14.540000 727.000000 140 136 159
85.280000 15.946667 728.000000 138 134 157
85.280000 17.333333 728.000000 138 134 157
85.280000 18.720000 728.000000 139 135 158
85.280000 20.106667 728.000000 140 136 159
85.280000 21.493333 728.000000 141 136 159
85.514286 22.942857 730.000000 142 133 160
85.514286 24.333333 730.000000 137 130 161
85.514286 25.723810 730.000000 135 127 159
85.514286 27.114286 730.000000 136 130 158
85.514286 28.504762 730.000000 138 132 158
85.514286 29.895238 730.000000 138 133 156
85.631429 31.328571 731.000000 138 133 155
85.631429 32.720952 731.000000 138 133 153
85.631429 34.113333 731.000000 138 133 153
85.631429 35.505714 731.000000 139 135 152
85.631429 36.898095 731.000000 137 133 150
85.631429 38.290476 731.000000 137 132 152
85.631429 39.682857 731.000000 138 133 153
85.631429 41.075238 731.000000 138 133 155
85.631429 42.467619 731.000000 135 130 153
85.631429 43.860000 731.000000 136 131 154
85.865714 45.376190 733.000000 138 132 158
85.865714 46.772381 733.000000 139 133 161
85.865714 48.168571 733.000000 137 131 159
85.865714 49.564762 733.000000 136 130 158
85.865714 50.960952 733.000000 136 130 158
85.865714 52.357143 733.000000 136 132 159
85.865714 53.753333 733.000000 135 131 158
85.865714 55.149524 733.000000 135 131 156
85.865714 56.545714 733.000000 136 132 157
85.865714 57.941905 733.000000 134 130 153
85.865714 59.338095 733.000000 134 130 153
85.865714 60.734286 733.000000 134 130 155
85.982857 62.215238 734.000000 134 130 157
85.982857 63.613333 734.000000 135 127 159
85.982857 65.011429 734.000000 135 127 161
85.982857 66.409524 734.000000 135 127 162
86.217143 67.992381 736.000000 135 127 162
86.217143 69.394286 736.000000 135 127 159
86.217143 70.796190 736.000000 134 127 156
86.217143 72.198095 736.000000 133 125 157
86.451429 73.800000 738.000000 133 125 157
86.451429 75.205714 738.000000 133 125 157
86.451429 76.611429 738.000000 133 125 157
86.451429 78.017143 738.000000 133 126 155
86.451429 79.422857 738.000000 132 125 154
86.451429 80.828571 738.000000 133 126 153
86.451429 82.234286 738.000000 134 129 152
86.451429 83.640000 738.000000 134 129 152
86.451429 85.045714 738.000000 134 127 154
86.451429 86.451429 738.000000 134 127 154
86.451429 87.857143 738.000000 134 127 156
86.568571 89.383810 739.000000 133 126 155
86.568571 90.791429 739.000000 133 126 155
86.568571 92.199048 739.000000 133 126 155
86.568571 93.606667 739.000000 133 126 155
86.568571 95.014286 739.000000 132 125 154
86.568571 96.421905 739.000000 131 124 153
86.568571 97.829524 739.000000 132 125 154
86.568571 99.237143 739.000000 131 124 153
86.568571 100.644762 739.000000 130 123 150
86.568571 102.052381 739.000000 130 123 150
86.568571 103.460000 739.000000 131 124 151
86.802857 105.151429 741.000000 130 123 150
86.802857 106.562857 741.000000 130 123 150
86.802857 107.974286 741.000000 129 122 149
86.920000 109.533333 742.000000 129 122 149
86.920000 110.946667 742.000000 129 122 149
86.920000 112.360000 742.000000 129 122 149
86.920000 113.773333 742.000000 129 122 149
87.154286 115.497143 744.000000 129 123 147
87.154286 116.914286 744.000000 127 122 145
87.154286 118.331429 744.000000 126 121 144
87.154286 119.748571 744.000000 125 120 143
87.154286 121.165714 744.000000 124 119 143
87.154286 122.582857 744.000000 124 119 143
86.920000 123.666667 742.000000 125 120 143
86.920000 125.080000 742.000000 125 120 143
86.920000 126.493333 742.000000 125 120 143
87.154286 128.251429 744.000000 124 119 142
87.388571 130.017143 746.000000 124 119 143
87.388571 131.438095 746.000000 125 119 146
87.388571 132.859048 746.000000 126 117 147
87.388571 134.280000 746.000000 127 118 150
87.388571 135.700952 746.000000 127 117 153
87.505714 137.305714 747.000000 126 116 154
87.505714 138.728571 747.000000 129 117 160
87.505714 140.151429 747.000000 127 116 159
87.505714 141.574286 747.000000 127 116 157
87.505714 142.997143 747.000000 127 117 153
87.505714 144.420000 747.000000 123 116 150
87.505714 145.842857 747.000000 123 117 146
87.505714 147.265714 747.000000 125 119 146
87.505714 148.688571 747.000000 125 119 146
87.740000 150.513333 749.000000 124 118 145
87.740000 151.940000 749.000000 123 117 146
87.740000 153.366667 749.000000 123 117 146
87.740000 154.793333 749.000000 125 118 150
87.740000 156.220000 749.000000 127 118 150
87.740000 157.646667 749.000000 122 113 145
87.857143 159.285714 750.000000 118 108 143
87.857143 160.714286 750.000000 67 58 89
87.857143 162.142857 750.000000 40 34 62
87.857143 163.571429 750.000000 36 32 57
87.857143 165.000000 750.000000 52 46 74
88.091429 166.872381 752.000000 83 77 103
88.091429 168.304762 752.000000 90 85 108
88.091429 169.737143 752.000000 93 88 111
88.091429 171.169524 752.000000 97 89 113
88.091429 172.601905 752.000000 98 90 114
88.091429 174.034286 752.000000 99 91 115
88.091429 175.466667 752.000000 101 93 117
88.091429 176.899048 752.000000 103 95 118
88.091429 178.331429 752.000000 104 96 119
88.091429 179.763810 752.000000 103 95 119
88.091429 181.196190 752.000000 102 94 118
88.091429 182.628571 752.000000 102 94 118
88.091429 184.060952 752.000000 103 98 121
88.325714 185.986667 754.000000 102 98 123
88.325714 187.422857 754.000000 99 95 122
88.325714 188.859048 754.000000 99 93 119
88.325714 190.295238 754.000000 102 94 118
88.325714 191.731429 754.000000 104 94 119
88.325714 193.167619 754.000000 112 103 124
88.442857 194.861905 755.000000 109 101 114
88.442857 196.300000 755.000000 87 80 88
88.442857 197.738095 755.000000 61 55 59
88.677143 199.703810 757.000000 28 23 30
88.677143 201.145714 757.000000 33 26 42
88.677143 202.587619 757.000000 99 91 112
88.677143 204.029524 757.000000 112 104 125
88.677143 205.471429 757.000000 120 112 136
88.677143 206.913333 757.000000 118 109 137
88.677143 208.355238 757.000000 115 105 133
88.677143 209.797143 757.000000 118 108 134
88.677143 211.239048 757.000000 117 107 132
88.911429 213.242857 759.000000 120 108 133
88.911429 214.688571 759.000000 119 106 133
88.911429 216.134286 759.000000 118 104 131
88.911429 217.580000 759.000000 118 104 131
88.911429 219.025714 759.000000 119 105 132
88.911429 220.471429 759.000000 120 106 133
88.911429 221.917143 759.000000 118 105 132
88.911429 223.362857 759.000000 118 105 132
88.911429 224.808571 759.000000 118 106 131
88.911429 226.254286 759.000000 118 106 131
88.911429 227.700000 759.000000 119 105 131
88.911429 229.145714 759.000000 119 105 129
89.145714 231.199048 761.000000 120 105 129
89.145714 232.648571 761.000000 120 105 129
89.145714 234.098095 761.000000 119 105 131
89.145714 235.547619 761.000000 117 105 130
89.262857 237.308571 762.000000 118 104 127
89.262857 238.760000 762.000000 115 102 122
89.262857 240.211429 762.000000 116 101 124
89.497143 242.297143 764.000000 121 103 125
89.497143 243.752381 764.000000 112 94 110
89.497143 245.207619 764.000000 67 47 56
89.731429 247.308571 766.000000 57 37 36
84.880952 -132.414286 713.000000 178 172 186
84.642857 -130.688571 711.000000 177 169 193
84.523810 -129.152381 710.000000 149 143 171
84.523810 -127.800000 710.000000 144 141 168
84.523810 -126.447619 710.000000 150 147 174
84.523810 -125.095238 710.000000 149 146 175
84.523810 -123.742857 710.000000 146 141 171
84.523810 -122.390476 710.000000 145 141 168
84.523810 -121.038095 710.000000 149 147 171
84.523810 -119.685714 710.000000 148 149 170
84.523810 -118.333333 710.000000 132 132 158
84.642857 -117.145714 711.000000 111 112 144
84.642857 -115.791429 711.000000 33 36 69
84.642857 -114.437143 711.000000 20 24 53
84.642857 -113.082857 711.000000 36 40 65
84.642857 -111.728571 711.000000 58 64 80
84.880952 -110.684762 713.000000 122 124 146
84.642857 -109.020000 711.000000 149 147 186
84.642857 -107.665714 711.000000 154 146 193
84.642857 -106.311429 711.000000 158 149 194
84.642857 -104.957143 711.000000 157 149 188
84.880952 -103.894286 713.000000 150 145 177
84.880952 -102.536190 713.000000 142 139 168
84.880952 -101.178095 713.000000 142 141 172
84.880952 -99.820000 713.000000 145 142 173
84.880952 -98.461905 713.000000 153 148 178
84.880952 -97.103810 713.000000 153 148 171
85.000000 -95.880000 714.000000 157 151 165
85.000000 -94.520000 714.000000 155 149 163
85.000000 -93.160000 714.000000 158 152 178
85.000000 -91.800000 714.000000 153 147 175
85.000000 -90.440000 714.000000 154 146 167
85.000000 -89.080000 714.000000 138 133 140
85.000000 -87.720000 714.000000 126 119 113
85.000000 -86.360000 714.000000 69 63 63
85.000000 -85.000000 714.000000 46 42 65
85.000000 -83.640000 714.000000 31 30 62
85.000000 -82.280000 714.000000 31 28 59
85.000000 -80.920000 714.000000 52 49 78
85.000000 -79.560000 714.000000 81 76 106
85.238095 -78.419048 716.000000 143 139 164
85.357143 -77.162857 717.000000 148 145 164
85.357143 -75.797143 717.000000 144 141 160
85.357143 -74.431429 717.000000 143 139 166
85.357143 -73.065714 717.000000 145 140 170
85.357143 -71.700000 717.000000 146 144 168
85.357143 -70.334286 717.000000 135 133 155
85.357143 -68.968571 717.000000 115 112 134
85.238095 -67.508571 716.000000 78 75 96
85.238095 -66.144762 716.000000 89 85 108
85.238095 -64.780952 716.000000 149 145 168
85.238095 -63.417143 716.000000 147 141 167
85.238095 -62.053333 716.000000 141 137 162
85.357143 -60.774286 717.000000 141 139 163
85.357143 -59.408571 717.000000 144 141 168
85.357143 -58.042857 717.000000 146 139 170
85.357143 -56.677143 717.000000 145 138 171
85.357143 -55.311429 717.000000 144 139 169
85.595238 -54.096190 719.000000 143 140 167
85.595238 -52.726667 719.000000 142 140 162
85.595238 -51.357143 719.000000 146 142 165
85.714286 -50.057143 720.000000 147 141 167
85.714286 -48.685714 720.000000 134 127 154
85.714286 -47.314286 720.000000 118 115 143
85.714286 -45.942857 720.000000 86 84 106
85.714286 -44.571429 720.000000 100 97 114
85.714286 -43.200000 720.000000 150 146 163
85.714286 -41.828571 720.000000 148 143 165
85.714286 -40.457143 720.000000 145 140 163
85.714286 -39.085714 720.000000 143 138 161
85.714286 -37.714286 720.000000 144 139 162
85.714286 -36.342857 720.000000 143 139 164
85.714286 -34.971429 720.000000 142 138 163
85.714286 -33.600000 720.000000 142 138 163
85.714286 -32.228571 720.000000 141 137 162
85.714286 -30.857143 720.000000 144 140 167
85.952381 -29.567619 722.000000 147 143 170
85.952381 -28.192381 722.000000 145 141 166
85.952381 -26.817143 722.000000 142 138 163
85.952381 -25.441905 722.000000 142 136 162
85.952381 -24.066667 722.000000 142 136 162
85.952381 -22.691429 722.000000 141 135 161
85.952381 -21.316190 722.000000 140 134 160
85.952381 -19.940952 722.000000 138 134 159
86.071429 -18.591429 723.000000 144 140 167
86.309524 -17.261905 725.000000 144 139 171
86.309524 -15.880952 725.000000 141 136 168
86.309524 -14.500000 725.000000 141 136 168
86.309524 -13.119048 725.000000 143 139 166
86.309524 -11.738095 725.000000 143 138 160
86.309524 -10.357143 725.000000 142 138 155
86.309524 -8.976190 725.000000 143 140 157
86.309524 -7.595238 725.000000 141 138 157
86.309524 -6.214286 725.000000 143 139 162
86.309524 -4.833333 725.000000 145 141 166
86.547619 -3.461905 727.000000 143 139 164
86.547619 -2.077143 727.000000 140 136 161
86.547619 -0.692381 727.000000 139 135 158
86.547619 0.692381 727.000000 140 136 159
86.547619 2.077143 727.000000 141 137 160
86.547619 3.461905 727.000000 142 137 160
86.547619 4.846667 727.000000 142 136 162
86.547619 6.231429 727.000000 141 135 161
86.547619 7.616190 727.000000 142 133 160
86.547619 9.000952 727.000000 142 134 158
86.547619 10.385714 727.000000 142 137 160
86.547619 11.770476 727.000000 143 138 160
86.547619 13.155238 727.000000 142 139 160
86.547619 14.540000 727.000000 141 138 159
86.547619 15.924762 727.000000 140 137 158
86.547619 17.309524 727.000000 139 136 157
86.547619 18.694286 727.000000 140 137 158
86.547619 20.079048 727.000000 140 135 157
86.666667 21.493333 728.000000 142 134 158
86.666667 22.880000 728.000000 141 132 159
86.904762 24.333333 730.000000 138 131 162
86.904762 25.723810 730.000000 137 130 163
86.904762 27.114286 730.000000 137 130 161
86.904762 28.504762 730.000000 138 132 158
86.904762 29.895238 730.000000 138 133 156
87.023810 31.328571 731.000000 138 133 155
87.023810 32.720952 731.000000 138 133 153
87.023810 34.113333 731.000000 138 133 153
87.023810 35.505714 731.000000 140 135 155
87.023810 36.898095 731.000000 139 134 154
87.023810 38.290476 731.000000 139 134 154
87.023810 39.682857 731.000000 139 134 156
87.023810 41.075238 731.000000 138 133 155
87.023810 42.467619 731.000000 136 131 154
87.023810 43.860000 731.000000 137 132 155
87.261905 45.376190 733.000000 138 133 156
87.261905 46.772381 733.000000 137 131 157
87.261905 48.168571 733.000000 136 130 158
87.261905 49.564762 733.000000 134 127 156
87.261905 50.960952 733.000000 134 127 156
87.261905 52.357143 733.000000 134 130 157
87.261905 53.753333 733.000000 133 129 156
87.261905 55.149524 733.000000 133 129 156
87.261905 56.545714 733.000000 134 130 155
87.380952 58.020952 734.000000 133 129 154
87.380952 59.419048 734.000000 133 129 154
87.380952 60.817143 734.000000 133 129 154
87.380952 62.215238 734.000000 133 129 156
87.380952 63.613333 734.000000 134 127 156
87.619048 65.188571 736.000000 134 126 158
87.619048 66.590476 736.000000 134 126 160
87.619048 67.992381 736.000000 134 126 160
87.619048 69.394286 736.000000 134 126 158
87.619048 70.796190 736.000000 133 126 155
87.619048 72.198095 736.000000 132 124 156
87.619048 73.600000 736.000000 132 124 156
87.857143 75.205714 738.000000 132 124 156
87.857143 76.611429 738.000000 131 123 155
87.857143 78.017143 738.000000 131 124 153
87.857143 79.422857 738.000000 132 125 152
87.857143 80.828571 738.000000 130 124 148
87.857143 82.234286 738.000000 132 126 150
87.857143 83.640000 738.000000 133 127 151
87.857143 85.045714 738.000000 132 126 150
87.857143 86.451429 738.000000 132 125 152
87.976190 87.976190 739.000000 132 125 152
87.976190 89.383810 739.000000 132 125 154
87.976190 90.791429 739.000000 134 127 156
87.976190 92.199048 739.000000 133 126 155
87.976190 93.606667 739.000000 133 126 155
87.976190 95.014286 739.000000 131 124 153
87.976190 96.421905 739.000000 130 123 152
87.976190 97.829524 739.000000 131 124 153
87.976190 99.237143 739.000000 131 124 153
87.976190 100.644762 739.000000 130 123 150
87.976190 102.052381 739.000000 131 124 151
88.214286 103.740000 741.000000 131 124 151
88.214286 105.151429 741.000000 130 123 150
88.214286 106.562857 741.000000 130 123 150
88.214286 107.974286 741.000000 130 123 150
88.333333 109.533333 742.000000 130 123 150
88.333333 110.946667 742.000000 129 122 149
88.333333 112.360000 742.000000 129 122 149
88.333333 113.773333 742.000000 129 122 149
88.571429 115.497143 744.000000 129 123 146
88.571429 116.914286 744.000000 127 122 145
88.571429 118.331429 744.000000 126 121 144
88.571429 119.748571 744.000000 126 121 145
88.571429 121.165714 744.000000 125 120 144
88.571429 122.582857 744.000000 125 120 144
88.333333 123.666667 742.000000 126 121 145
88.333333 125.080000 742.000000 126 121 145
88.333333 126.493333 742.000000 126 121 145
88.571429 128.251429 744.000000 125 120 144
88.809524 130.017143 746.000000 125 120 144
88.809524 131.438095 746.000000 124 118 145
88.809524 132.859048 746.000000 125 116 146
88.809524 134.280000 746.000000 125 116 148
88.928571 135.882857 747.000000 125 115 150
88.928571 137.305714 747.000000 124 114 150
88.928571 138.728571 747.000000 125 115 153
88.928571 140.151429 747.000000 125 115 153
88.928571 141.574286 747.000000 126 116 152
88.928571 142.997143 747.000000 126 116 151
88.928571 144.420000 747.000000 123 116 148
88.928571 145.842857 747.000000 123 117 146
88.928571 147.265714 747.000000 124 118 145
89.166667 149.086667 749.000000 124 118 145
89.166667 150.513333 749.000000 123 117 144
89.166667 151.940000 749.000000 123 117 144
89.166667 153.366667 749.000000 123 117 146
89.166667 154.793333 749.000000 125 119 148
89.166667 156.220000 749.000000 126 117 147
89.166667 157.646667 749.000000 122 113 143
89.285714 159.285714 750.000000 117 108 138
89.285714 160.714286 750.000000 60 54 82
89.285714 162.142857 750.000000 30 26 53
89.285714 163.571429 750.000000 19 15 40
89.285714 165.000000 750.000000 21 17 42
89.523810 166.872381 752.000000 44 40 65
89.523810 168.304762 752.000000 44 40 65
89.523810 169.737143 752.000000 51 46 69
89.523810 171.169524 752.000000 52 47 67
89.523810 172.601905 752.000000 52 48 65
89.523810 174.034286 752.000000 57 53 68
89.523810 175.466667 752.000000 59 55 69
89.523810 176.899048 752.000000 58 54 68
89.523810 178.331429 752.000000 60 56 71
89.523810 179.763810 752.000000 60 56 73
89.523810 181.196190 752.000000 64 59 79
89.523810 182.628571 752.000000 62 57 79
89.761905 184.550476 754.000000 63 58 80
89.761905 185.986667 754.000000 59 56 77
89.761905 187.422857 754.000000 63 60 81
89.761905 188.859048 754.000000 63 58 78
89.761905 190.295238 754.000000 60 55 75
89.880952 191.985714 755.000000 61 53 74
89.880952 193.423810 755.000000 67 60 78
89.880952 194.861905 755.000000 67 61 73
89.880952 196.300000 755.000000 54 48 58
90.119048 198.261905 757.000000 52 47 54
90.119048 199.703810 757.000000 26 20 30
90.119048 201.145714 757.000000 37 30 46
90.119048 202.587619 757.000000 104 96 117
90.119048 204.029524 757.000000 115 107 129
90.119048 205.471429 757.000000 123 115 139
90.119048 206.913333 757.000000 121 112 140
90.119048 208.355238 757.000000 119 109 137
90.119048 209.797143 757.000000 118 108 134
90.119048 211.239048 757.000000 118 108 133
90.357143 213.242857 759.000000 120 107 134
90.357143 214.688571 759.000000 120 107 134
90.357143 216.134286 759.000000 120 106 133
90.357143 217.580000 759.000000 119 105 132
90.357143 219.025714 759.000000 120 106 133
90.357143 220.471429 759.000000 120 106 133
90.595238 222.501905 761.000000 118 105 132
90.595238 223.951429 761.000000 118 106 131
90.595238 225.400952 761.000000 118 106 131
90.595238 226.850476 761.000000 118 106 131
90.595238 228.300000 761.000000 119 105 131
90.595238 229.749524 761.000000 119 105 129
90.595238 231.199048 761.000000 120 105 129
90.595238 232.648571 761.000000 120 105 129
90.595238 234.098095 761.000000 119 105 131
90.595238 235.547619 761.000000 117 105 130
90.714286 237.308571 762.000000 118 105 125
90.714286 238.760000 762.000000 116 103 121
90.714286 240.211429 762.000000 117 102 123
90.952381 242.297143 764.000000 119 104 123
90.952381 243.752381 764.000000 111 94 110
90.952381 245.207619 764.000000 67 47 58
91.190476 247.308571 766.000000 55 35 34
91.309524 249.092381 767.000000 79 59 50
86.239048 -132.414286 713.000000 176 173 184
85.876190 -130.504762 710.000000 174 169 189
85.876190 -129.152381 710.000000 147 143 168
85.876190 -127.800000 710.000000 142 142 170
85.876190 -126.447619 710.000000 148 149 179
85.876190 -125.095238 710.000000 147 147 175
85.876190 -123.742857 710.000000 145 142 171
85.876190 -122.390476 710.000000 143 140 167
85.876190 -121.038095 710.000000 149 147 171
85.876190 -119.685714 710.000000 148 149 170
85.876190 -118.333333 710.000000 130 130 156
85.997143 -117.145714 711.000000 109 109 144
85.997143 -115.791429 711.000000 29 29 65
85.997143 -114.437143 711.000000 19 19 53
85.997143 -113.082857 711.000000 61 62 92
85.997143 -111.728571 711.000000 85 86 107
85.997143 -110.374286 711.000000 148 146 168
86.239048 -109.326667 713.000000 154 149 181
86.239048 -107.968571 713.000000 152 145 179
86.239048 -106.610476 713.000000 153 144 173
86.239048 -105.252381 713.000000 149 141 165
86.239048 -103.894286 713.000000 140 138 159
86.239048 -102.536190 713.000000 139 140 160
86.239048 -101.178095 713.000000 138 135 162
86.239048 -99.820000 713.000000 142 138 165
86.239048 -98.461905 713.000000 151 141 166
86.239048 -97.103810 713.000000 153 139 162
86.360000 -95.880000 714.000000 155 142 160
86.360000 -94.520000 714.000000 153 141 163
86.360000 -93.160000 714.000000 155 146 175
86.360000 -91.800000 714.000000 155 148 179
86.360000 -90.440000 714.000000 149 146 167
86.360000 -89.080000 714.000000 140 138 152
86.360000 -87.720000 714.000000 139 133 143
86.360000 -86.360000 714.000000 94 88 102
86.360000 -85.000000 714.000000 56 52 77
86.360000 -83.640000 714.000000 22 18 51
86.360000 -82.280000 714.000000 23 19 52
86.360000 -80.920000 714.000000 52 49 80
86.360000 -79.560000 714.000000 82 77 107
86.601905 -78.419048 716.000000 144 140 165
86.722857 -77.162857 717.000000 145 142 159
86.722857 -75.797143 717.000000 140 137 154
86.722857 -74.431429 717.000000 139 136 165
86.722857 -73.065714 717.000000 143 140 171
86.722857 -71.700000 717.000000 147 145 169
86.722857 -70.334286 717.000000 124 122 144
86.722857 -68.968571 717.000000 103 100 119
86.601905 -67.508571 716.000000 85 82 101
86.601905 -66.144762 716.000000 98 93 115
86.722857 -64.871429 717.000000 150 145 167
86.722857 -63.505714 717.000000 146 143 162
86.601905 -62.053333 716.000000 142 139 156
86.601905 -60.689524 716.000000 142 141 157
86.722857 -59.408571 717.000000 145 144 162
86.722857 -58.042857 717.000000 146 140 166
86.722857 -56.677143 717.000000 145 139 167
86.964762 -55.465714 719.000000 145 140 170
86.964762 -54.096190 719.000000 143 140 167
86.964762 -52.726667 719.000000 145 142 163
86.964762 -51.357143 719.000000 143 140 161
86.964762 -49.987619 719.000000 145 140 163
87.085714 -48.685714 720.000000 133 126 155
87.085714 -47.314286 720.000000 116 111 142
87.085714 -45.942857 720.000000 85 82 109
87.085714 -44.571429 720.000000 101 98 115
87.085714 -43.200000 720.000000 148 144 161
87.085714 -41.828571 720.000000 147 142 165
87.085714 -40.457143 720.000000 144 138 164
87.085714 -39.085714 720.000000 143 137 165
87.085714 -37.714286 720.000000 144 138 166
87.085714 -36.342857 720.000000 142 138 165
87.085714 -34.971429 720.000000 142 138 165
87.085714 -33.600000 720.000000 142 137 167
87.085714 -32.228571 720.000000 141 136 166
87.085714 -30.857143 720.000000 143 138 168
87.327619 -29.567619 722.000000 145 140 170
87.327619 -28.192381 722.000000 143 138 168
87.327619 -26.817143 722.000000 139 134 164
87.327619 -25.441905 722.000000 140 134 162
87.327619 -24.066667 722.000000 141 135 163
87.327619 -22.691429 722.000000 140 134 162
87.327619 -21.316190 722.000000 139 133 161
87.327619 -19.940952 722.000000 140 136 161
87.448571 -18.591429 723.000000 143 139 164
87.690476 -17.261905 725.000000 144 140 167
87.690476 -15.880952 725.000000 140 136 163
87.690476 -14.500000 725.000000 141 135 163
87.690476 -13.119048 725.000000 143 137 163
87.690476 -11.738095 725.000000 141 136 158
87.690476 -10.357143 725.000000 140 135 155
87.690476 -8.976190 725.000000 143 138 158
87.690476 -7.595238 725.000000 138 133 155
87.690476 -6.214286 725.000000 138 135 156
87.690476 -4.833333 725.000000 144 141 162
87.932381 -3.461905 727.000000 142 138 163
87.932381 -2.077143 727.000000 140 136 163
87.932381 -0.692381 727.000000 142 137 167
87.932381 0.692381 727.000000 143 138 168
87.690476 2.071429 725.000000 142 136 164
87.690476 3.452381 725.000000 144 135 164
87.690476 4.833333 725.000000 143 134 165
87.932381 6.231429 727.000000 141 132 163
87.932381 7.616190 727.000000 141 132 161
87.932381 9.000952 727.000000 143 134 161
87.932381 10.385714 727.000000 142 137 160
87.932381 11.770476 727.000000 142 137 160
87.932381 13.155238 727.000000 141 137 160
87.932381 14.540000 727.000000 140 138 160
87.932381 15.924762 727.000000 139 137 159
87.932381 17.309524 727.000000 140 136 159
87.932381 18.694286 727.000000 140 136 161
87.932381 20.079048 727.000000 140 134 162
88.053333 21.493333 728.000000 142 133 164
88.053333 22.880000 728.000000 141 131 165
88.295238 24.333333 730.000000 140 133 166
88.295238 25.723810 730.000000 139 132 163
88.295238 27.114286 730.000000 139 133 161
88.295238 28.504762 730.000000 139 133 161
88.295238 29.895238 730.000000 139 133 159
88.416190 31.328571 731.000000 138 133 156
88.416190 32.720952 731.000000 139 134 157
88.295238 34.066667 730.000000 138 133 156
88.295238 35.457143 730.000000 139 134 157
88.416190 36.898095 731.000000 140 134 160
88.416190 38.290476 731.000000 140 134 160
88.416190 39.682857 731.000000 139 133 159
88.416190 41.075238 731.000000 137 131 157
88.416190 42.467619 731.000000 137 132 155
88.416190 43.860000 731.000000 137 132 155
88.416190 45.252381 731.000000 138 133 156
88.416190 46.644762 731.000000 137 132 155
88.416190 48.037143 731.000000 136 130 156
88.658095 49.564762 733.000000 134 127 154
88.658095 50.960952 733.000000 135 129 157
88.658095 52.357143 733.000000 134 130 157
88.658095 53.753333 733.000000 133 127 158
88.779048 55.224762 734.000000 133 127 158
88.779048 56.622857 734.000000 135 131 158
88.779048 58.020952 734.000000 134 130 157
88.779048 59.419048 734.000000 134 130 157
88.779048 60.817143 734.000000 133 129 156
88.779048 62.215238 734.000000 133 129 156
88.779048 63.613333 734.000000 134 127 156
89.020952 65.188571 736.000000 134 126 158
89.020952 66.590476 736.000000 134 126 158
89.020952 67.992381 736.000000 134 126 158
89.020952 69.394286 736.000000 133 126 155
89.020952 70.796190 736.000000 133 126 155
89.020952 72.198095 736.000000 132 124 156
89.020952 73.600000 736.000000 132 124 156
89.262857 75.205714 738.000000 131 123 155
89.262857 76.611429 738.000000 131 123 155
89.262857 78.017143 738.000000 131 124 153
89.262857 79.422857 738.000000 132 125 152
89.262857 80.828571 738.000000 129 123 147
89.262857 82.234286 738.000000 132 126 150
89.262857 83.640000 738.000000 133 127 151
89.262857 85.045714 738.000000 132 126 150
89.262857 86.451429 738.000000 131 124 151
89.262857 87.857143 738.000000 131 124 151
89.262857 89.262857 738.000000 132 125 154
89.262857 90.668571 738.000000 133 126 155
89.262857 92.074286 738.000000 132 125 154
89.262857 93.480000 738.000000 132 125 154
89.262857 94.885714 738.000000 131 124 153
89.383810 96.421905 739.000000 130 123 152
89.383810 97.829524 739.000000 131 124 153
89.383810 99.237143 739.000000 131 124 153
89.383810 100.644762 739.000000 131 124 151
89.625714 102.328571 741.000000 132 125 152
89.625714 103.740000 741.000000 131 124 151
89.625714 105.151429 741.000000 131 124 151
89.625714 106.562857 741.000000 130 123 150
89.746667 108.120000 742.000000 130 123 150
89.746667 109.533333 742.000000 129 122 149
89.746667 110.946667 742.000000 129 122 149
89.746667 112.360000 742.000000 129 122 151
89.746667 113.773333 742.000000 129 122 149
89.746667 115.186667 742.000000 129 122 149
89.746667 116.600000 742.000000 129 122 149
89.746667 118.013333 742.000000 127 121 148
89.988571 119.748571 744.000000 126 120 149
89.988571 121.165714 744.000000 126 119 151
89.988571 122.582857 744.000000 126 119 151
89.746667 123.666667 742.000000 126 119 151
89.746667 125.080000 742.000000 126 119 151
89.988571 126.834286 744.000000 126 119 151
89.988571 128.251429 744.000000 125 119 148
90.230476 130.017143 746.000000 125 119 148
90.230476 131.438095 746.000000 124 118 147
90.230476 132.859048 746.000000 125 116 146
90.230476 134.280000 746.000000 124 115 145
90.351429 135.882857 747.000000 124 115 145
90.351429 137.305714 747.000000 124 115 145
90.351429 138.728571 747.000000 123 114 142
90.351429 140.151429 747.000000 123 114 142
90.351429 141.574286 747.000000 123 114 142
90.351429 142.997143 747.000000 124 115 143
90.351429 144.420000 747.000000 122 116 143
90.351429 145.842857 747.000000 122 116 143
90.593333 147.660000 749.000000 122 116 145
90.593333 149.086667 749.000000 122 116 145
90.593333 150.513333 749.000000 123 117 146
90.593333 151.940000 749.000000 123 117 146
90.593333 153.366667 749.000000 122 116 143
90.593333 154.793333 749.000000 123 118 142
90.593333 156.220000 749.000000 125 117 141
90.593333 157.646667 749.000000 122 115 134
90.714286 159.285714 750.000000 116 109 125
90.714286 160.714286 750.000000 54 50 65
90.714286 162.142857 750.000000 27 24 43
90.714286 163.571429 750.000000 19 18 36
90.714286 165.000000 750.000000 14 13 31
90.956190 166.872381 752.000000 45 42 61
90.956190 168.304762 752.000000 39 35 58
90.956190 169.737143 752.000000 39 36 57
90.956190 171.169524 752.000000 38 36 50
90.956190 172.601905 752.000000 40 37 48
90.956190 174.034286 752.000000 33 30 37
90.956190 175.466667 752.000000 36 34 39
90.956190 176.899048 752.000000 36 34 39
90.956190 178.331429 752.000000 43 40 47
90.956190 179.763810 752.000000 44 41 50
90.956190 181.196190 752.000000 47 43 57
90.956190 182.628571 752.000000 40 35 55
90.956190 184.060952 752.000000 38 35 56
91.198095 185.986667 754.000000 44 41 58
91.198095 187.422857 754.000000 50 47 64
91.198095 188.859048 754.000000 55 50 72
91.319048 190.547619 755.000000 55 47 71
91.319048 191.985714 755.000000 54 44 68
91.319048 193.423810 755.000000 60 50 77
91.319048 194.861905 755.000000 62 51 85
91.319048 196.300000 755.000000 50 39 73
91.560952 198.261905 757.000000 43 32 62
91.560952 199.703810 757.000000 29 19 46
91.560952 201.145714 757.000000 43 32 62
91.560952 202.587619 757.000000 105 95 122
91.560952 204.029524 757.000000 115 105 131
91.560952 205.471429 757.000000 122 112 137
91.802857 207.460000 759.000000 121 111 137
91.560952 208.355238 757.000000 120 110 138
91.560952 209.797143 757.000000 119 109 137
91.560952 211.239048 757.000000 118 108 136
91.802857 213.242857 759.000000 120 107 136
91.802857 214.688571 759.000000 121 108 137
91.802857 216.134286 759.000000 121 106 136
91.802857 217.580000 759.000000 121 106 136
91.802857 219.025714 759.000000 120 105 135
91.802857 220.471429 759.000000 119 104 134
92.044762 222.501905 761.000000 118 105 134
92.044762 223.951429 761.000000 119 106 135
92.044762 225.400952 761.000000 119 106 135
92.165714 227.148571 762.000000 119 106 133
92.165714 228.600000 762.000000 120 106 133
92.165714 230.051429 762.000000 119 105 132
92.165714 231.502857 762.000000 120 104 132
92.165714 232.954286 762.000000 120 104 132
92.044762 234.098095 761.000000 119 104 134
92.044762 235.547619 761.000000 117 104 133
92.165714 237.308571 762.000000 117 105 127
92.165714 238.760000 762.000000 117 104 124
92.165714 240.211429 762.000000 117 102 123
92.407619 242.297143 764.000000 120 103 122
92.407619 243.752381 764.000000 110 91 110
92.649524 245.849524 766.000000 66 46 58
92.649524 247.308571 766.000000 58 38 39
92.770476 249.092381 767.000000 82 62 55
87.597143 -132.414286 713.000000 177 174 183
86.982857 -130.137143 708.000000 174 171 188
86.982857 -128.788571 708.000000 147 145 169
87.228571 -127.800000 710.000000 143 144 172
87.228571 -126.447619 710.000000 150 151 179
87.228571 -125.095238 710.000000 149 149 177
87.228571 -123.742857 710.000000 144 144 170
87.228571 -122.390476 710.000000 144 141 168
87.228571 -121.038095 710.000000 150 148 172
87.228571 -119.685714 710.000000 147 148 169
87.228571 -118.333333 710.000000 126 126 151
87.351429 -117.145714 711.000000 102 103 134
87.351429 -115.791429 711.000000 20 20 54
87.351429 -114.437143 711.000000 20 20 56
87.351429 -113.082857 711.000000 94 95 126
87.351429 -111.728571 711.000000 122 120 143
87.351429 -110.374286 711.000000 144 141 158
87.597143 -109.326667 713.000000 135 131 146
87.597143 -107.968571 713.000000 81 75 89
87.597143 -106.610476 713.000000 64 58 70
87.597143 -105.252381 713.000000 35 32 41
87.597143 -103.894286 713.000000 39 39 49
87.597143 -102.536190 713.000000 86 88 101
87.597143 -101.178095 713.000000 108 107 125
87.597143 -99.820000 713.000000 126 123 141
87.597143 -98.461905 713.000000 105 97 108
87.597143 -97.103810 713.000000 59 49 58
87.720000 -95.880000 714.000000 58 45 63
87.720000 -94.520000 714.000000 72 60 82
87.720000 -93.160000 714.000000 69 61 84
87.720000 -91.800000 714.000000 88 85 106
87.720000 -90.440000 714.000000 97 96 114
87.720000 -89.080000 714.000000 131 130 146
87.720000 -87.720000 714.000000 136 133 150
87.720000 -86.360000 714.000000 104 101 120
87.720000 -85.000000 714.000000 67 67 91
87.720000 -83.640000 714.000000 18 19 47
87.720000 -82.280000 714.000000 22 21 52
87.720000 -80.920000 714.000000 60 57 88
87.720000 -79.560000 714.000000 87 82 112
88.088571 -78.528571 717.000000 149 145 170
88.088571 -77.162857 717.000000 148 145 162
88.088571 -75.797143 717.000000 142 139 156
88.088571 -74.431429 717.000000 139 136 163
88.088571 -73.065714 717.000000 145 142 173
88.088571 -71.700000 717.000000 148 145 174
88.088571 -70.334286 717.000000 113 111 136
87.965714 -68.872381 716.000000 91 89 110
87.965714 -67.508571 716.000000 92 89 110
87.965714 -66.144762 716.000000 106 102 125
88.088571 -64.871429 717.000000 148 145 166
